ply
format ascii 1.0
element vertex 589
property float x
property float y
property float z
element face 0
property list uchar int vertex_indices
end_header
-6.183169e-001 2.152908e+000 -9.785791e+000 25 23 24
2.212681e+000 -7.696163e-001 -6.220749e+000 219 193 90
2.207783e+000 -8.706505e-001 -6.195886e+000 166 142 33
2.361508e+000 1.640939e+000 -5.531113e+000 190 169 113
2.405164e+000 -1.018590e-001 -5.765495e+000 221 196 124
2.201881e+000 -8.097595e-001 -6.227675e+000 219 189 92
1.913585e+000 -1.113160e+000 -6.795134e+000 43 25 0
2.306297e+000 -1.299124e+000 -5.952253e+000 208 159 39
-1.780162e+000 3.268122e+000 -1.090797e+001 90 49 28
-1.477809e+000 3.144927e+000 -1.096150e+001 82 37 21
-1.813950e+000 3.146284e+000 -1.109327e+001 29 13 12
2.531430e+000 -4.778624e-001 -5.410498e+000 206 194 190
2.531430e+000 -4.778624e-001 -5.410498e+000 206 194 190
2.538162e+000 -3.612582e-001 -5.395899e+000 255 186 200
2.342728e+000 -1.139679e+000 -5.898789e+000 201 198 120
2.486936e+000 -4.905671e-001 -5.461125e+000 230 44 72
2.192821e+000 -8.833420e-001 -6.244179e+000 222 195 89
2.192821e+000 -8.833420e-001 -6.244179e+000 222 195 89
1.913585e+000 -1.113160e+000 -6.795134e+000 43 25 0
2.250441e+000 -5.270237e-001 -6.146511e+000 226 196 78
2.218804e+000 -6.899138e-001 -6.184539e+000 207 194 67
2.171552e+000 -8.288721e-001 -6.320284e+000 205 187 92
-1.334145e+000 3.081078e+000 -1.106051e+001 48 9 1
2.178081e+000 -9.854621e-001 -6.303189e+000 213 188 79
2.148959e+000 -1.066342e+000 -6.332938e+000 213 188 57
3.400904e-001 3.282892e+000 -1.019045e+001 13 13 13
2.412141e+000 1.794625e+000 -5.499917e+000 200 158 76
5.469560e-001 1.013485e+000 -5.537739e+000 240 130 141
1.572857e+000 1.084381e+000 -5.217853e+000 159 99 109
-8.903097e-001 6.537491e-001 -4.550930e+000 235 199 218
2.104797e+000 8.782588e-001 -5.788249e+000 172 119 131
-1.301993e-001 5.962937e-001 -5.343537e+000 204 170 187
-6.214879e-002 6.056306e-001 -5.390777e+000 173 143 157
5.649961e-002 6.062213e-001 -5.345741e+000 241 218 234
2.479151e+000 6.944470e-001 -5.524852e+000 225 178 93
2.527459e+000 5.878042e-001 -5.465392e+000 215 165 72
1.431138e+000 4.123095e-001 -5.766058e+000 126 15 24
6.334304e-001 -3.978117e-001 -5.550360e+000 186 23 42
6.334304e-001 -3.978117e-001 -5.550360e+000 186 23 42
2.522355e+000 -4.913573e-001 -5.432776e+000 247 181 194
2.515296e+000 -5.322245e-001 -5.450602e+000 255 166 192
2.201881e+000 -8.097595e-001 -6.227675e+000 219 189 92
2.000903e+000 -2.025908e+000 -1.148257e+001 62 50 55
2.376994e+000 -8.198232e-001 -5.826449e+000 217 188 68
1.887009e+000 -2.356665e+000 -1.189935e+001 96 83 99
1.335565e+000 -2.884427e+000 -1.338043e+001 47 36 37
2.342728e+000 -1.139679e+000 -5.898789e+000 201 198 120
2.307571e+000 -2.475269e+000 -1.087336e+001 75 67 82
2.059800e+000 -2.844943e+000 -1.141987e+001 93 86 102
2.470373e+000 -2.526247e+000 -1.026874e+001 106 101 120
2.470373e+000 -2.526247e+000 -1.026874e+001 106 101 120
1.822689e+000 -3.160314e+000 -1.210670e+001 86 78 89
1.822689e+000 -3.160314e+000 -1.210670e+001 86 78 89
2.407537e+000 -2.668719e+000 -1.051375e+001 71 59 71
1.947948e+000 -3.037207e+000 -1.166076e+001 96 87 104
1.948073e+000 -3.114881e+000 -1.169321e+001 56 46 60
1.516705e+000 -3.603459e+000 -1.295820e+001 62 56 68
2.417053e+000 -2.876066e+000 -1.038323e+001 58 49 68
2.541221e+000 -2.771862e+000 -1.003387e+001 103 98 118
2.264021e+000 -3.199363e+000 -1.075499e+001 90 83 94
2.119994e+000 -3.372792e+000 -1.122192e+001 91 85 99
2.621183e+000 -2.949475e+000 -9.968087e+000 87 80 98
2.485634e+000 -3.122208e+000 -1.024231e+001 65 59 71
2.509564e+000 -3.087967e+000 -1.015550e+001 116 110 124
2.327848e+000 -3.247454e+000 -1.058752e+001 54 47 61
2.657646e+000 -2.993816e+000 -9.769933e+000 75 70 90
2.363127e+000 -3.462142e+000 -1.070379e+001 100 95 118
2.397155e+000 -3.361371e+000 -1.043568e+001 102 98 117
2.481657e+000 -3.406534e+000 -1.021861e+001 110 107 128
2.390702e+000 -3.562278e+000 -1.045753e+001 103 95 108
2.711518e+000 -3.275334e+000 -9.644964e+000 115 104 126
2.159931e+000 -3.873359e+000 -1.104505e+001 48 44 58
-1.332788e+000 3.037818e+000 -1.111596e+001 60 27 15
6.492277e-001 1.769423e+000 -5.762867e+000 156 26 34
6.783624e-001 1.689782e+000 -5.758171e+000 171 25 31
7.252684e-001 1.690287e+000 -5.792568e+000 176 21 35
8.268461e-001 1.695315e+000 -5.727356e+000 163 20 31
3.170186e-001 1.550546e+000 -5.716557e+000 122 16 18
7.259996e-001 1.571562e+000 -5.813768e+000 124 0 1
2.315714e+000 1.816649e+000 -5.934816e+000 181 144 58
2.293086e+000 1.801045e+000 -5.984784e+000 196 163 95
2.293086e+000 1.801045e+000 -5.984784e+000 196 163 95
2.179718e+000 1.778636e+000 -6.038759e+000 146 116 46
2.227807e+000 1.735586e+000 -6.061786e+000 161 120 38
2.394330e+000 1.551252e+000 -5.566297e+000 209 170 82
2.433302e+000 1.530501e+000 -5.541604e+000 197 172 99
2.388769e+000 1.475307e+000 -5.589121e+000 192 151 64
4.200487e-001 1.077357e+000 -5.524203e+000 137 19 43
-1.102688e+000 7.093566e-001 -4.532715e+000 205 143 156
-6.803384e-003 9.331789e-001 -5.542511e+000 112 2 3
3.650332e-001 9.646971e-001 -5.519922e+000 211 125 138
-1.023502e+000 6.628894e-001 -4.554085e+000 226 176 190
-9.279932e-001 6.636877e-001 -4.544221e+000 236 223 235
-7.523952e-001 6.335517e-001 -4.537846e+000 219 156 172
-1.069737e+000 4.965277e-001 -4.584478e+000 179 166 194
1.194689e-001 6.403950e-001 -5.345111e+000 224 219 226
9.147074e-002 6.217462e-001 -5.353679e+000 240 211 229
-5.643133e-001 3.394452e-001 -4.555779e+000 221 169 180
1.424452e+000 5.352031e-001 -5.770660e+000 116 5 5
-5.138325e-001 2.681070e-001 -4.574383e+000 155 98 110
7.466240e-001 2.073981e-001 -5.730853e+000 210 38 62
-5.066237e-001 1.046992e-001 -4.627936e+000 153 103 114
-5.458572e-001 2.397843e-002 -4.662585e+000 219 165 178
-5.557369e-001 -1.835845e-002 -4.705114e+000 232 179 189
-5.094520e-001 -2.146013e-002 -4.739294e+000 242 180 193
9.589338e-001 2.347348e-002 -5.593844e+000 177 127 144
6.181438e-001 -4.250059e-001 -5.555134e+000 200 38 56
6.181438e-001 -4.250059e-001 -5.555134e+000 200 38 56
2.543161e+000 -4.098448e-001 -5.359940e+000 229 192 202
2.222280e+000 -5.955043e-001 -6.205821e+000 167 140 24
2.530709e+000 -5.485973e-001 -5.411385e+000 251 193 217
-2.905194e-001 -2.024998e+000 -1.239955e+001 126 97 101
2.512651e+000 -5.838909e-001 -5.471592e+000 247 181 184
2.511962e+000 -5.896849e-001 -5.407870e+000 247 189 203
2.513994e+000 -6.149545e-001 -5.477335e+000 214 80 102
1.775308e+000 -2.116001e+000 -1.212180e+001 62 44 48
1.241604e+000 -2.987425e+000 -1.368170e+001 71 63 72
2.085837e+000 -2.379407e+000 -1.132759e+001 58 45 54
2.298176e+000 -2.232499e+000 -1.069002e+001 122 115 131
2.259548e+000 -2.363583e+000 -1.088990e+001 121 113 128
2.259548e+000 -2.363583e+000 -1.088990e+001 121 113 128
2.316421e+000 -2.369802e+000 -1.087770e+001 65 58 74
2.446824e+000 -2.418395e+000 -1.041358e+001 99 91 106
1.860106e+000 -2.842262e+000 -1.186598e+001 52 40 50
1.331477e+000 -3.327919e+000 -1.346614e+001 71 63 74
1.674642e+000 -3.036286e+000 -1.245017e+001 54 46 59
1.140324e+000 -3.484341e+000 -1.394958e+001 32 27 34
1.565551e+000 -3.203013e+000 -1.286742e+001 80 77 88
1.441778e+000 -3.275656e+000 -1.304923e+001 50 43 50
2.384470e+000 -2.552352e+000 -1.047606e+001 60 55 70
2.384470e+000 -2.552352e+000 -1.047606e+001 60 55 70
2.526099e+000 -2.578257e+000 -1.005635e+001 67 58 74
1.735583e+000 -3.343612e+000 -1.226352e+001 97 91 105
2.372916e+000 -2.854857e+000 -1.059413e+001 59 49 58
2.266384e+000 -3.003518e+000 -1.088574e+001 115 107 120
2.288675e+000 -2.939954e+000 -1.059619e+001 54 45 61
1.857360e+000 -3.460055e+000 -1.203002e+001 59 52 62
1.641890e+000 -3.656903e+000 -1.256381e+001 41 35 44
2.512755e+000 -2.894523e+000 -1.012174e+001 105 99 117
2.629982e+000 -2.797984e+000 -9.831744e+000 29 20 37
1.596355e+000 -3.790253e+000 -1.264176e+001 34 27 35
2.468960e+000 -3.044898e+000 -1.028226e+001 103 98 118
2.074502e+000 -3.399026e+000 -1.124466e+001 44 38 52
2.153988e+000 -3.528388e+000 -1.111631e+001 56 50 60
2.242333e+000 -3.571645e+000 -1.087037e+001 88 81 97
2.457619e+000 -3.369223e+000 -1.032532e+001 102 97 117
2.833731e+000 -3.028622e+000 -9.254699e+000 117 108 129
2.771229e+000 -3.093516e+000 -9.418364e+000 49 41 55
2.195295e+000 -3.714505e+000 -1.091850e+001 91 85 101
2.637895e+000 -3.299158e+000 -9.799481e+000 58 57 65
2.502520e+000 -3.569579e+000 -1.036339e+001 94 86 103
2.530873e+000 -3.487222e+000 -1.013462e+001 105 100 120
-3.735040e+000 3.208461e+000 -1.238733e+001 91 83 104
6.902582e-001 1.615162e+000 -5.807635e+000 120 6 6
9.737316e-001 1.629302e+000 -5.691505e+000 145 23 42
2.284430e+000 1.840434e+000 -5.867821e+000 190 160 97
3.716716e-001 1.483467e+000 -5.721183e+000 105 0 0
5.061234e-001 1.489190e+000 -5.799924e+000 120 10 5
2.380996e+000 1.697506e+000 -5.539365e+000 185 147 49
2.268511e+000 1.710719e+000 -5.939898e+000 196 166 95
9.202897e-002 1.306080e+000 -5.645837e+000 149 16 27
1.706525e+000 1.424800e+000 -5.444805e+000 68 26 27
1.706525e+000 1.424800e+000 -5.444805e+000 68 26 27
4.651367e-001 1.232253e+000 -5.559295e+000 138 11 13
2.405351e+000 1.464293e+000 -5.576665e+000 189 148 60
-9.799377e-001 7.514141e-001 -4.523697e+000 170 105 121
-9.799377e-001 7.514141e-001 -4.523697e+000 170 105 121
-9.355603e-001 7.555868e-001 -4.529439e+000 170 107 124
-9.408772e-001 7.286977e-001 -4.526338e+000 231 163 176
-8.042373e-001 7.347498e-001 -4.522340e+000 224 166 180
1.301425e+000 1.130192e+000 -5.841193e+000 143 7 14
-8.676133e-002 8.779798e-001 -5.516173e+000 129 8 11
1.288618e+000 1.057963e+000 -5.976072e+000 111 1 2
-8.445027e-002 8.329388e-001 -5.463839e+000 156 23 31
-1.883605e-001 7.988736e-001 -5.402331e+000 97 0 1
-2.226283e-002 8.224378e-001 -5.480844e+000 172 28 38
-6.759718e-001 6.383222e-001 -4.543743e+000 169 106 122
-1.051035e+000 4.516126e-001 -4.585636e+000 173 159 192
-9.256013e-001 4.340124e-001 -4.576502e+000 171 214 253
8.882124e-001 6.549950e-001 -5.531506e+000 159 22 34
-5.453118e-001 3.595757e-001 -4.572453e+000 154 96 110
1.471195e+000 5.613900e-001 -5.866006e+000 149 25 28
2.143265e+000 6.108834e-001 -6.316017e+000 113 65 18
-4.950212e-001 3.091459e-001 -4.586155e+000 210 148 159
-9.496617e-001 2.537158e-001 -4.628409e+000 244 182 195
-4.803358e-001 2.002305e-001 -4.613826e+000 226 164 173
2.507684e+000 4.387913e-001 -5.500305e+000 217 181 72
1.201301e+000 1.974229e-001 -5.579692e+000 172 98 106
4.095113e-001 -1.938972e-001 -5.979580e+000 159 10 20
5.322441e-001 -2.675073e-001 -5.642282e+000 136 1 6
1.162433e+000 -2.043534e-001 -5.343548e+000 208 142 152
1.268633e+000 -2.640282e-001 -5.251750e+000 216 149 162
1.947868e+000 -8.089044e-001 -6.503649e+000 192 136 147
2.160095e+000 -8.616243e-001 -6.318171e+000 210 190 96
1.955315e+000 -2.303455e+000 -1.157109e+001 53 40 49
2.033195e+000 -2.334839e+000 -1.143379e+001 67 54 63
1.250891e+000 -3.363543e+000 -1.342530e+001 42 32 41
2.103270e+000 -3.163033e+000 -1.128864e+001 56 46 57
5.933255e-001 -4.048719e+000 -1.364908e+001 12 12 12
2.676455e+000 -2.833818e+000 -9.697325e+000 59 50 62
2.676455e+000 -2.833818e+000 -9.697325e+000 59 50 62
2.501966e+000 -3.276745e+000 -1.026890e+001 97 91 103
1.729338e+000 -4.271974e+000 -1.233930e+001 39 36 46
5.304781e-001 1.568108e+000 -5.720014e+000 136 11 13
2.237055e+000 1.869194e+000 -5.985098e+000 194 155 48
1.493814e-001 1.306964e+000 -5.625706e+000 152 18 30
1.578602e+000 1.296631e+000 -5.269503e+000 71 29 31
1.578602e+000 1.296631e+000 -5.269503e+000 71 29 31
2.399020e+000 1.420677e+000 -5.582881e+000 207 173 87
-1.098057e+000 7.820405e-001 -4.548606e+000 134 79 99
-9.883099e-001 7.844747e-001 -4.542512e+000 219 163 180
-9.564688e-001 7.868666e-001 -4.539538e+000 220 163 178
-9.507384e-001 6.992007e-001 -4.543508e+000 217 157 169
-7.637596e-001 7.010999e-001 -4.528066e+000 236 176 190
-9.443350e-001 5.011686e-001 -4.575239e+000 252 249 255
-1.117910e-001 6.268899e-001 -5.395319e+000 105 10 18
9.078334e-001 6.208368e-001 -5.495032e+000 109 9 20
2.179551e+000 6.355369e-001 -6.274630e+000 177 136 94
1.402911e+000 4.787653e-001 -5.778327e+000 163 21 31
1.477641e+000 4.476002e-001 -5.828973e+000 126 10 11
-1.213174e+000 1.789769e-001 -4.844071e+000 218 156 169
6.443304e-001 2.080039e-001 -5.628375e+000 115 11 17
9.532177e-001 2.293803e-001 -5.734721e+000 192 35 45
7.166216e-001 1.764334e-001 -5.696547e+000 121 10 27
1.116317e+000 1.072583e-001 -5.559668e+000 175 100 109
1.240692e+000 1.004805e-001 -5.502915e+000 94 33 41
9.491558e-001 -1.261793e-002 -5.579749e+000 69 8 24
5.386124e-001 -3.285958e-001 -5.693323e+000 189 35 51
1.121342e+000 -3.027585e-001 -5.344930e+000 220 154 164
2.037582e+000 -2.143434e+000 -1.139865e+001 55 38 44
1.515492e+000 -2.575569e+000 -1.228778e+001 107 84 67
1.552181e+000 -2.944303e+000 -1.280327e+001 58 53 60
2.163029e+000 -2.974026e+000 -1.090840e+001 52 45 53
2.163795e+000 -3.245529e+000 -1.108283e+001 55 46 50
7.136783e-001 1.768316e+000 -5.784900e+000 188 20 41
2.420983e+000 1.684212e+000 -5.511889e+000 200 142 47
2.008025e-002 1.328078e+000 -5.736828e+000 145 12 23
2.415475e+000 1.574250e+000 -5.543314e+000 200 145 42
2.415475e+000 1.574250e+000 -5.543314e+000 200 145 42
9.029237e-001 1.159246e+000 -5.693259e+000 101 5 6
8.759289e-001 9.549278e-001 -5.567683e+000 146 12 19
-1.025020e+000 4.803291e-001 -4.578528e+000 182 232 254
-6.292912e-001 5.012901e-001 -4.595507e+000 243 183 195
1.031725e-001 5.925235e-001 -5.368757e+000 80 8 37
1.036849e+000 6.727607e-001 -5.482475e+000 53 8 4
-5.073650e-001 3.722483e-001 -4.600918e+000 208 147 162
-5.280988e-001 3.242988e-001 -4.549104e+000 156 98 112
2.229679e+000 6.027202e-001 -6.166242e+000 193 161 108
2.249969e+000 5.179911e-001 -6.102903e+000 202 140 48
1.153957e+000 6.715366e-002 -5.451195e+000 114 48 62
2.111676e+000 -2.480380e+000 -1.129571e+001 94 88 102
2.628504e+000 -3.152560e+000 -9.785732e+000 53 43 53
2.339232e+000 -3.580142e+000 -1.059631e+001 42 40 45
2.361508e+000 1.640939e+000 -5.531113e+000 190 169 113
2.479383e-001 1.299780e+000 -5.594824e+000 164 16 27
3.888357e-001 1.107052e+000 -5.532224e+000 163 157 175
2.616929e-002 1.009088e+000 -5.641741e+000 170 17 29
1.434640e-001 6.657680e-001 -5.372642e+000 217 204 223
-6.148077e-001 4.573084e-001 -4.618989e+000 107 51 66
8.180023e-001 5.764987e-001 -5.465577e+000 103 0 4
-1.577506e-002 4.609396e-001 -5.474483e+000 219 59 90
-1.577506e-002 4.609396e-001 -5.474483e+000 219 59 90
-8.780928e-001 2.630269e-001 -4.589462e+000 210 148 163
2.341832e+000 -1.142481e+000 -5.897484e+000 202 199 119
7.383230e-001 1.640984e+000 -5.777149e+000 184 26 40
1.444932e-002 1.099140e+000 -5.646202e+000 92 0 6
4.474842e-001 1.015558e+000 -5.529604e+000 162 21 25
3.472993e-001 5.026813e-001 -5.360278e+000 73 4 11
1.373984e+000 6.118210e-001 -5.736609e+000 166 22 28
1.004818e+000 5.061994e-002 -5.623761e+000 77 2 9
-1.023890e-001 1.408679e+000 -5.923425e+000 160 18 26
-9.196496e-001 4.044801e-001 -4.624109e+000 188 204 225
9.953065e-001 5.836617e-001 -5.474430e+000 215 194 212
9.953065e-001 5.836617e-001 -5.474430e+000 215 194 212
2.414250e+000 3.583533e-001 -5.634192e+000 216 191 127
1.020625e+000 8.479805e-003 -5.420839e+000 182 111 132
1.240506e+000 -2.382849e-001 -5.295445e+000 213 146 155
-9.787890e-001 6.479096e-001 -4.571622e+000 204 211 246
4.251411e-002 3.595590e-001 -5.466632e+000 138 24 31
8.576871e-001 6.573906e-002 -5.604213e+000 200 180 197
-8.964386e-001 -2.292578e-001 -5.028845e+000 18 22 23
2.186760e+000 -7.302388e-001 -6.117953e+000 195 164 85
-9.337927e-001 5.325217e-001 -4.556705e+000 28 27 49
-9.337927e-001 5.325217e-001 -4.556705e+000 28 27 49
-9.337927e-001 5.325217e-001 -4.556705e+000 28 27 49
6.738050e-001 1.637204e+000 -5.682878e+000 170 17 30
-3.390444e+000 3.874558e+000 -1.148231e+001 147 84 88
-4.864543e+000 3.777413e+000 -1.126592e+001 139 68 53
-4.864543e+000 3.777413e+000 -1.126592e+001 139 68 53
-3.487206e+000 3.754777e+000 -1.137537e+001 135 77 74
-3.595578e+000 3.729278e+000 -1.138532e+001 132 53 20
-3.118638e+000 3.738699e+000 -1.147129e+001 123 57 33
-4.506381e+000 3.221508e+000 -9.788561e+000 120 63 43
4.551199e-002 3.332415e+000 -1.027892e+001 17 17 15
-4.932756e+000 3.714190e+000 -1.138313e+001 138 71 62
-4.730717e+000 3.666032e+000 -1.123542e+001 135 68 50
-4.421661e+000 3.680103e+000 -1.134915e+001 145 76 58
-4.862104e+000 3.576671e+000 -1.106167e+001 122 43 16
-4.862104e+000 3.576671e+000 -1.106167e+001 122 43 16
-3.663420e+000 3.651080e+000 -1.142733e+001 136 55 29
-3.422512e+000 3.637731e+000 -1.145171e+001 126 51 26
7.411394e-001 1.837865e+000 -5.741603e+000 108 9 12
-5.342355e+000 3.608633e+000 -1.127752e+001 119 67 61
-5.342355e+000 3.608633e+000 -1.127752e+001 119 67 61
-4.911910e+000 3.561078e+000 -1.118867e+001 129 73 70
-3.209775e+000 3.614449e+000 -1.151261e+001 145 84 70
-3.787651e+000 3.595833e+000 -1.152078e+001 131 59 39
-3.701211e+000 3.581264e+000 -1.147401e+001 127 58 41
-5.315118e+000 3.480922e+000 -1.119737e+001 132 69 54
-5.144177e+000 3.478941e+000 -1.120406e+001 135 68 51
-5.144177e+000 3.478941e+000 -1.120406e+001 135 68 51
-3.165092e+000 3.524752e+000 -1.148807e+001 146 72 56
-3.768067e+000 3.494781e+000 -1.147900e+001 125 56 41
-3.768067e+000 3.494781e+000 -1.147900e+001 125 56 41
-3.587215e+000 3.499839e+000 -1.153573e+001 124 51 41
-3.784466e+000 3.436625e+000 -1.140167e+001 152 76 60
7.575655e-001 1.725134e+000 -5.732146e+000 172 27 34
2.373692e+000 1.747676e+000 -5.803953e+000 201 166 109
1.055557e-001 1.496767e+000 -5.759984e+000 146 25 29
-8.653253e-001 9.096179e-001 -4.553226e+000 206 152 162
-1.031367e+000 8.352715e-001 -4.558677e+000 196 142 158
-8.938223e-001 8.329638e-001 -4.539233e+000 215 156 176
3.650332e-001 9.646971e-001 -5.519922e+000 211 125 138
-7.545311e-001 7.881690e-001 -4.561131e+000 223 155 168
-4.942336e-001 7.879132e-001 -4.705495e+000 45 20 16
-1.808644e-001 8.344369e-001 -5.461180e+000 108 14 15
-7.260874e-001 6.607023e-001 -4.523068e+000 217 160 174
1.506280e+000 8.287070e-001 -5.755702e+000 141 13 17
-6.644298e-001 6.596278e-001 -4.552726e+000 234 167 184
-2.360267e-001 6.969461e-001 -5.602585e+000 114 10 11
-4.848171e-001 5.587027e-001 -4.676674e+000 206 153 172
-5.329255e-001 4.225734e-001 -4.582004e+000 176 118 132
2.187829e+000 5.584203e-001 -6.228473e+000 138 84 19
-4.988994e-001 4.086903e-001 -4.604387e+000 189 128 143
-5.375147e-001 3.978229e-001 -4.544773e+000 187 129 143
-6.859319e-001 3.405301e-001 -4.523347e+000 227 168 180
3.193516e-001 3.720665e-001 -5.331658e+000 199 74 111
2.466531e+000 3.600725e-001 -5.449714e+000 219 185 71
-1.029718e+000 2.579315e-001 -4.642183e+000 214 153 168
-5.303820e-001 2.480967e-001 -4.579207e+000 216 164 176
-1.267985e+000 1.966613e-001 -4.838985e+000 243 186 193
-1.225832e+000 1.280473e-001 -4.851861e+000 245 174 190
2.563109e+000 -1.947832e-001 -5.344970e+000 254 183 199
7.730926e-001 -2.010057e-001 -5.446845e+000 168 22 40
2.271391e+000 -2.382159e-001 -6.093289e+000 170 139 22
2.126877e+000 -2.980490e-001 -6.130942e+000 181 128 105
1.016579e+000 -3.658823e-001 -5.363635e+000 208 140 151
2.018636e+000 -6.453040e-001 -6.479397e+000 197 144 130
2.527448e+000 -6.809504e-001 -5.382572e+000 249 130 96
2.166128e+000 -2.008497e+000 -1.095069e+001 93 79 86
2.166128e+000 -2.008497e+000 -1.095069e+001 93 79 86
2.309286e+000 -2.027129e+000 -1.071453e+001 72 65 78
2.126234e+000 -2.200126e+000 -1.121624e+001 70 57 66
2.306297e+000 -1.299124e+000 -5.952253e+000 208 159 39
1.920731e+000 -2.603147e+000 -1.181701e+001 59 47 57
1.860106e+000 -2.842262e+000 -1.186598e+001 52 40 50
2.384470e+000 -2.552352e+000 -1.047606e+001 60 55 70
1.947948e+000 -3.037207e+000 -1.166076e+001 96 87 104
1.004290e+000 -3.909535e+000 -1.428838e+001 32 31 39
2.417053e+000 -2.876066e+000 -1.038323e+001 58 49 68
1.314222e+000 -3.765019e+000 -1.341157e+001 44 38 50
1.806833e+000 -3.418605e+000 -1.211778e+001 45 36 52
2.065952e+000 -3.243435e+000 -1.145108e+001 92 82 93
2.065952e+000 -3.243435e+000 -1.145108e+001 92 82 93
2.220528e+000 -3.133910e+000 -1.103331e+001 56 48 59
1.191396e+000 -4.016571e+000 -1.385663e+001 33 31 36
1.939481e+000 -3.443822e+000 -1.169844e+001 55 47 62
1.939481e+000 -3.443822e+000 -1.169844e+001 55 47 62
2.556258e+000 -2.990040e+000 -1.004473e+001 79 72 88
2.287977e+000 -3.472338e+000 -1.083821e+001 55 48 64
2.937435e+000 -2.972487e+000 -8.962964e+000 58 50 65
1.561388e+000 -4.260057e+000 -1.282492e+001 50 46 61
9.556686e-001 -4.954245e+000 -1.420628e+001 46 45 48
-3.783771e+000 3.878149e+000 -1.143447e+001 153 92 91
-2.265530e-001 3.407673e+000 -1.014982e+001 10 11 6
-4.949453e+000 3.669532e+000 -1.104126e+001 119 47 26
-4.949453e+000 3.669532e+000 -1.104126e+001 119 47 26
-5.046911e+000 3.595502e+000 -1.111310e+001 114 43 15
-1.683621e+000 3.320542e+000 -1.100956e+001 85 42 23
-3.654001e+000 3.398455e+000 -1.147222e+001 127 50 24
-9.429879e-001 8.520078e-001 -4.585927e+000 218 157 174
-6.089829e-002 1.039393e+000 -5.668231e+000 85 0 0
-9.960933e-001 8.145262e-001 -4.540416e+000 151 96 115
3.237104e-002 8.653504e-001 -5.509424e+000 182 32 44
-9.852046e-001 6.943716e-001 -4.545948e+000 225 170 182
-7.186680e-001 6.860762e-001 -4.536780e+000 177 115 128
-1.017321e+000 6.395364e-001 -4.554110e+000 243 224 248
1.479335e+000 7.944136e-001 -5.715212e+000 151 27 29
-3.643946e-002 7.271927e-001 -5.403800e+000 159 21 32
1.426528e-001 7.143456e-001 -5.396601e+000 73 2 14
-2.691027e-001 7.248692e-001 -5.600192e+000 85 15 16
3.646003e-001 6.654544e-001 -5.366687e+000 244 207 220
6.378611e-001 6.667825e-001 -5.470462e+000 159 17 29
2.252924e+000 7.177164e-001 -6.026202e+000 214 154 57
-5.199710e-001 4.951834e-001 -4.618574e+000 190 133 150
-8.168448e-001 4.764020e-001 -4.567489e+000 186 161 186
-3.841408e-001 4.858888e-001 -4.679140e+000 227 186 204
2.316931e+000 5.764205e-001 -6.303945e+000 205 170 102
7.822601e-003 3.894424e-001 -5.485243e+000 208 45 74
2.145111e+000 3.094205e-001 -6.376842e+000 170 135 48
5.825086e-001 2.618546e-001 -5.651176e+000 211 41 59
1.397451e+000 2.466935e-001 -5.563426e+000 148 89 92
-5.312276e-001 2.025699e-001 -4.577119e+000 210 157 170
7.915183e-001 1.984407e-001 -5.750864e+000 212 32 57
-5.066237e-001 1.046992e-001 -4.627936e+000 153 103 114
-4.985970e-001 4.816806e-002 -4.668180e+000 238 182 195
2.512716e+000 -7.262259e-002 -5.467464e+000 219 188 81
6.996631e-001 -2.429475e-001 -5.613393e+000 160 11 24
2.554392e+000 -2.348629e-001 -5.353144e+000 254 184 201
2.176868e+000 -3.040185e-001 -6.166955e+000 116 71 11
2.202475e+000 -3.430493e-001 -6.162046e+000 103 63 0
4.376779e-001 -3.286325e-001 -5.951020e+000 187 28 43
8.332817e-001 -3.561467e-001 -5.464029e+000 173 47 63
2.251707e+000 -4.563120e-001 -6.105736e+000 233 202 77
2.251707e+000 -4.563120e-001 -6.105736e+000 233 202 77
2.063110e+000 -5.448353e-001 -6.488760e+000 230 188 112
1.883127e+000 -8.232062e-001 -6.514703e+000 184 138 142
2.089099e+000 -8.517881e-001 -6.531885e+000 219 191 83
2.086118e+000 -8.529914e-001 -6.398256e+000 217 186 62
1.931188e+000 -1.170369e+000 -6.851954e+000 202 184 75
-2.713314e-001 -2.188229e+000 -1.239255e+001 61 37 32
-2.713314e-001 -2.188229e+000 -1.239255e+001 61 37 32
1.938351e+000 -2.221563e+000 -1.175080e+001 70 52 56
1.351344e+000 -2.924093e+000 -1.326254e+001 68 61 69
-1.175170e+000 -2.802695e+000 -1.264312e+001 96 81 91
2.296168e+000 -2.012805e+000 -8.388395e+000 110 105 73
1.194817e+000 -3.518318e+000 -1.378542e+001 58 51 59
2.526099e+000 -2.578257e+000 -1.005635e+001 67 58 74
2.439228e+000 -2.136942e+000 -8.092333e+000 189 177 151
1.612745e+000 -3.404214e+000 -1.264029e+001 85 79 93
1.549517e+000 -3.471652e+000 -1.259289e+001 48 42 54
2.019235e+000 -3.262599e+000 -1.152028e+001 57 47 58
2.019235e+000 -3.262599e+000 -1.152028e+001 57 47 58
2.756876e+000 -2.736162e+000 -9.500128e+000 55 40 41
2.756876e+000 -2.736162e+000 -9.500128e+000 55 40 41
9.544178e-001 -4.155489e+000 -1.419841e+001 10 10 10
2.134442e+000 -3.459202e+000 -1.111104e+001 83 77 90
2.772085e+000 -2.939693e+000 -9.362395e+000 118 107 125
-1.955670e+000 -6.334800e+000 -1.903472e+001 76 72 86
2.649619e+000 -3.215667e+000 -9.643631e+000 121 116 132
1.545300e+000 -4.411103e+000 -1.281965e+001 39 36 47
1.545300e+000 -4.411103e+000 -1.281965e+001 39 36 47
-1.824437e+000 3.549487e+000 -1.076982e+001 97 40 20
6.494323e-001 1.811204e+000 -5.774596e+000 93 2 1
1.975316e+000 2.078595e+000 -6.702688e+000 87 63 33
-1.843047e+000 3.242615e+000 -1.095537e+001 25 15 12
7.323792e-001 1.716237e+000 -5.772892e+000 133 5 9
2.268511e+000 1.710719e+000 -5.939898e+000 196 166 95
2.233811e+000 1.701015e+000 -5.978460e+000 174 129 54
2.233811e+000 1.701015e+000 -5.978460e+000 174 129 54
2.210059e+000 1.687487e+000 -6.016918e+000 174 137 72
3.248504e-001 1.603988e+000 -5.767170e+000 135 0 7
-6.062093e-001 2.488373e+000 -9.673220e+000 14 13 11
1.553985e+000 1.379159e+000 -5.370125e+000 95 48 54
2.244643e+000 1.465937e+000 -5.956736e+000 201 166 100
7.299914e-001 1.302251e+000 -5.764874e+000 85 0 2
6.490761e-001 1.282673e+000 -5.759161e+000 82 6 4
1.218144e+000 1.134279e+000 -5.175798e+000 182 136 148
1.257214e+000 1.277402e+000 -5.890575e+000 139 9 20
4.156640e-001 1.157802e+000 -5.522711e+000 139 30 32
1.301425e+000 1.130192e+000 -5.841193e+000 143 7 14
-1.075204e+000 7.547681e-001 -4.541219e+000 226 166 183
-9.965935e-001 7.207083e-001 -4.524725e+000 223 160 174
1.100662e-001 8.514071e-001 -5.498394e+000 181 25 39
-8.522423e-001 7.000290e-001 -4.515250e+000 237 173 187
3.001583e-002 7.967333e-001 -5.488271e+000 121 1 5
-6.759718e-001 6.383222e-001 -4.543743e+000 169 106 122
4.307770e-001 7.248431e-001 -5.355820e+000 253 228 233
4.307770e-001 7.248431e-001 -5.355820e+000 253 228 233
2.809956e-001 7.071836e-001 -5.297284e+000 223 200 217
-8.173092e-001 6.000170e-001 -4.587173e+000 251 221 239
-6.492232e-001 5.873896e-001 -4.561643e+000 194 128 138
-6.492232e-001 5.873896e-001 -4.561643e+000 194 128 138
-5.434224e-001 5.186061e-001 -4.627021e+000 225 168 183
-9.875053e-001 4.081784e-001 -4.567781e+000 160 179 212
2.176122e+000 4.851368e-001 -6.267745e+000 130 87 39
5.075447e-001 2.740640e-001 -5.655155e+000 211 45 65
4.729902e-001 2.378447e-001 -5.638011e+000 127 2 12
-5.774271e-001 -7.228933e-002 -4.744327e+000 227 179 191
-1.040314e+000 -1.292532e-001 -4.963925e+000 224 167 168
-8.959564e-001 -1.655898e-001 -4.990563e+000 246 248 255
5.295052e-001 -2.319141e-001 -5.777670e+000 170 29 38
2.144394e+000 -2.665461e-001 -6.154896e+000 110 69 7
5.322441e-001 -2.675073e-001 -5.642282e+000 136 1 6
7.163616e-001 -2.658235e-001 -5.482234e+000 187 28 43
2.511962e+000 -5.896849e-001 -5.407870e+000 247 189 203
1.196920e+000 -2.284111e+000 -1.207703e+001 118 94 83
1.630844e+000 -2.743180e+000 -1.244578e+001 43 36 52
1.202646e+000 -3.077876e+000 -1.370044e+001 46 40 52
-4.850808e-001 -3.077310e+000 -1.297857e+001 107 82 87
-3.948388e-001 -3.085045e+000 -1.297473e+001 95 70 72
-1.041067e+000 -3.030210e+000 -1.222660e+001 97 72 70
1.935055e+000 -3.273587e+000 -1.171662e+001 56 49 66
2.483358e+000 -2.948586e+000 -1.026949e+001 64 58 77
2.483358e+000 -2.948586e+000 -1.026949e+001 64 58 77
2.817773e+000 -2.833531e+000 -9.237394e+000 59 49 60
2.293577e+000 -3.856570e+000 -1.076769e+001 86 81 103
-3.232520e-001 3.374184e+000 -1.009686e+001 24 15 14
-3.115937e+000 3.612650e+000 -1.151937e+001 130 53 23
5.913301e-001 1.727664e+000 -5.857875e+000 79 0 0
2.376477e+000 1.657815e+000 -5.756378e+000 186 139 63
2.262324e+000 1.651489e+000 -5.996994e+000 197 163 87
1.460104e+000 1.411525e+000 -5.313617e+000 130 84 94
2.492823e-002 1.268206e+000 -5.671974e+000 96 0 0
5.522061e-001 1.121751e+000 -5.572074e+000 132 10 31
-1.033880e+000 8.024855e-001 -4.529043e+000 153 98 117
-8.856193e-001 7.732215e-001 -4.517786e+000 222 162 177
-6.926630e-001 7.251739e-001 -4.556032e+000 224 161 171
-9.754174e-001 6.066895e-001 -4.554704e+000 170 228 250
-6.159317e-001 4.129617e-001 -4.572486e+000 211 160 175
-9.841131e-001 3.523834e-001 -4.589447e+000 239 201 202
2.458923e+000 -9.928519e-002 -5.752524e+000 222 185 51
5.670717e-001 -1.899085e+000 -1.226396e+001 113 86 69
2.127264e+000 -1.237385e+000 -6.336584e+000 217 191 54
2.127264e+000 -1.237385e+000 -6.336584e+000 217 191 54
1.380689e+000 -2.517704e+000 -1.226657e+001 24 25 38
2.301647e+000 -1.943584e+000 -8.457750e+000 182 170 136
2.163795e+000 -3.245529e+000 -1.108283e+001 55 46 50
2.628504e+000 -3.152560e+000 -9.785732e+000 53 43 53
1.923109e+000 -3.967096e+000 -1.191343e+001 36 30 44
6.052680e-001 1.612955e+000 -5.825889e+000 164 15 27
-2.137559e-001 7.579804e-001 -5.375177e+000 141 18 23
2.508441e+000 7.158818e-001 -5.464303e+000 218 159 61
2.440516e+000 6.672228e-001 -5.598675e+000 218 187 118
1.439838e+000 6.519576e-001 -5.730377e+000 154 25 30
-1.063693e+000 4.053604e-001 -4.612559e+000 249 187 206
2.487525e+000 4.812506e-001 -5.514412e+000 216 187 123
2.542318e+000 -2.028430e-001 -5.399218e+000 226 36 52
2.542318e+000 -2.028430e-001 -5.399218e+000 226 36 52
3.690308e-001 -2.365519e-001 -5.966933e+000 200 35 55
2.559500e+000 -2.787239e-001 -5.355755e+000 200 180 180
2.545807e+000 -3.525244e-001 -5.361846e+000 209 182 190
2.545807e+000 -3.525244e-001 -5.361846e+000 209 182 190
2.091060e+000 -4.943273e-001 -6.172516e+000 191 139 157
1.854361e+000 -2.139063e+000 -1.186347e+001 89 78 82
4.693865e-001 -3.205032e+000 -1.282518e+001 97 76 65
2.409470e+000 -2.041615e+000 -8.158862e+000 187 176 147
2.950751e+000 -2.882524e+000 -8.945848e+000 63 56 64
1.408909e+000 -4.377845e+000 -1.316568e+001 71 68 74
2.339232e+000 -3.580142e+000 -1.059631e+001 42 40 45
8.097872e-001 -4.847079e+000 -1.432043e+001 44 43 48
-7.453571e-001 3.359957e+000 -1.033789e+001 26 15 12
1.246586e+000 1.459333e+000 -5.454943e+000 134 91 108
1.562434e+000 1.450969e+000 -5.405870e+000 167 119 129
9.836987e-001 1.248505e+000 -5.811311e+000 104 8 10
1.059721e+000 1.133550e+000 -5.724052e+000 121 11 11
-2.266461e-001 1.001106e+000 -5.556826e+000 88 1 0
8.215760e-001 7.993620e-001 -5.524017e+000 166 16 27
-7.144708e-002 7.848850e-001 -5.448701e+000 92 2 2
-1.400264e-001 7.127502e-001 -5.383226e+000 195 33 48
9.651145e-001 4.847741e-001 -5.503864e+000 211 48 76
9.543880e-001 1.694264e-001 -5.684510e+000 101 0 6
1.270563e-001 -1.896993e+000 -1.204639e+001 121 91 91
6.750953e-001 -2.332762e+000 -1.206593e+001 19 25 36
1.177150e+000 -3.381076e+000 -1.380137e+001 41 35 42
1.121701e+000 -4.139330e+000 -1.421508e+001 50 47 54
2.272177e+000 -3.667706e+000 -1.085499e+001 75 67 88
-1.405138e-001 7.157507e-001 -5.389307e+000 192 32 47
1.678353e+000 6.308594e-001 -5.913380e+000 148 29 26
8.861724e-001 5.288833e-001 -5.437718e+000 217 201 208
8.861724e-001 5.288833e-001 -5.437718e+000 217 201 208
2.414250e+000 3.583533e-001 -5.634192e+000 216 191 127
-1.679383e-001 2.433371e-001 -5.584094e+000 219 222 233
-1.219826e+000 1.033557e-001 -4.859120e+000 232 161 174
2.155526e-001 -2.571809e+000 -1.217430e+001 102 76 60
-1.283735e+000 -2.906412e+000 -1.246110e+001 63 58 70
3.321474e-001 -3.414653e+000 -1.304514e+001 7 8 3
2.531488e+000 -2.789395e+000 -1.008252e+001 98 95 116
-2.943673e+000 3.138589e+000 -1.178186e+001 18 17 23
1.256622e+000 1.260427e+000 -5.354333e+000 184 133 152
6.492460e-001 1.109954e+000 -5.584946e+000 112 14 13
1.418004e+000 3.368787e-001 -5.687926e+000 61 8 7
1.328625e+000 2.163031e-001 -5.545081e+000 184 117 126
9.948860e-001 -3.685974e+000 -1.375611e+001 54 51 62
2.528977e+000 -3.408998e+000 -1.022910e+001 75 72 93
2.477609e+000 5.865502e-001 -5.547074e+000 214 156 47
-9.910888e-002 3.173232e-001 -5.520646e+000 236 233 242
2.106534e+000 -6.268891e-001 -6.341907e+000 219 188 64
2.011316e+000 -9.524670e-001 -6.513498e+000 213 186 54
1.470633e+000 -4.164821e+000 -1.223308e+001 52 48 62
1.075378e-001 9.274742e-001 -5.540901e+000 200 29 48
1.365971e+000 -3.980862e+000 -1.306797e+001 50 47 58
1.980952e+000 8.388419e-001 -6.236153e+000 193 133 145
-4.751224e-002 5.376199e-001 -5.431472e+000 246 239 246
2.246903e+000 7.041843e-001 -5.955234e+000 214 156 54
-4.675639e-003 3.371970e-002 2.112166e-002 0 255 0
-4.628833e-003 3.350900e-002 -2.887788e-002 255 255 0
-6.566679e-001 7.316417e-001 3.633456e-001 255 0 0
-6.536186e-001 7.289454e-001 3.135115e-001 255 255 0
