# .PCD v0.7 - Point Cloud Data file format
VERSION 0.7
FIELDS x y z rgb Type idRegion
SIZE 4 4 4 4 4 4
TYPE F F F F U I
COUNT 1 1 1 1 1 1
WIDTH 884
HEIGHT 1
VIEWPOINT 5.54790 1.00000 -3.45818 1.00000 0.00000 0.00000 0.00000
POINTS 884
# map: Type 0:IfcBuildingElementProxy
# map: Type 1:IfcDoor
# map: Type 2:IfcRoof
# map: Type 3:IfcSlab
# map: Type 4:IfcStair
# map: Type 5:IfcWallStandardCase
# map: Type 6:IfcWindow
DATA ascii
8.1547430 0.0000000 -3.6940581 9.40395425e-39 3 1489
8.1576128 0.0000000 -3.6598440 9.40395425e-39 3 1489
8.1600335 0.0000000 -3.6255952 9.40395425e-39 3 1489
8.1620048 0.0000000 -3.5913177 9.40395425e-39 3 1489
8.1635263 0.0000000 -3.5570172 9.40395425e-39 3 1489
8.1645978 0.0000000 -3.5226997 9.40395425e-39 3 1489
8.1652190 0.0000000 -3.4883711 9.40395425e-39 3 1489
8.1653899 0.0000000 -3.4540373 9.40395425e-39 3 1489
8.1651104 0.0000000 -3.4197042 9.40395425e-39 3 1489
8.1643806 0.0000000 -3.3853778 9.40395425e-39 3 1489
8.1632006 0.0000000 -3.3510638 9.40395425e-39 3 1489
8.1615706 0.0000000 -3.3167684 9.40395425e-39 3 1489
8.1594909 0.0000000 -3.2824972 9.40395425e-39 3 1489
8.1569619 0.0000000 -3.2482562 9.40395425e-39 3 1489
8.1539839 0.0000000 -3.2140514 9.40395425e-39 3 1489
8.1505575 0.0000000 -3.1798886 9.40395425e-39 3 1489
8.1466833 0.0000000 -3.1457737 9.40395425e-39 3 1489
8.1423620 0.0000000 -3.1117125 9.40395425e-39 3 1489
8.1375943 0.0000000 -3.0777109 9.40395425e-39 3 1489
8.1323809 0.0000000 -3.0437748 9.40395425e-39 3 1489
8.1267229 0.0000000 -3.0099100 9.40395425e-39 3 1489
8.1206212 0.0000000 -2.9761223 9.40395425e-39 3 1489
8.1140768 0.0000000 -2.9424176 9.40395425e-39 3 1489
8.1070908 0.0000000 -2.9088016 9.40395425e-39 3 1489
8.0996645 0.0000000 -2.8752802 9.40395425e-39 3 1489
8.0917992 0.0000000 -2.8418590 9.40395425e-39 3 1489
8.0834961 0.0000000 -2.8085439 9.40395425e-39 3 1489
8.0747568 0.0000000 -2.7753405 9.40395425e-39 3 1489
8.0655827 0.0000000 -2.7422547 9.40395425e-39 3 1489
7.1359286 0.3668335 -2.9840081 1.64108221e-38 4 2270
7.1936659 0.3411760 -2.9431618 1.64108221e-38 4 41
7.1867689 0.3411760 -2.9216187 1.64108221e-38 4 41
7.1525487 0.3520943 -2.9094155 1.64108221e-38 4 2264
7.1721302 0.3411760 -2.8788132 1.64108221e-38 4 41
7.1643910 0.3411760 -2.8575581 1.64108221e-38 4 41
7.1563736 0.3411760 -2.8364064 1.64108221e-38 4 41
7.1480795 0.3411760 -2.8153616 1.64108221e-38 4 41
7.1395101 0.3411760 -2.7944275 1.64108221e-38 4 41
7.9503131 0.0000000 -2.4190991 9.40395425e-39 3 1489
7.9364769 0.0000000 -2.3876762 9.40395425e-39 3 1489
7.9222298 0.0000000 -2.3564375 9.40395425e-39 3 1489
7.9075741 0.0000000 -2.3253884 9.40395425e-39 3 1489
7.8925124 0.0000000 -2.2945342 9.40395425e-39 3 1489
7.8770473 0.0000000 -2.2638802 9.40395425e-39 3 1489
7.0083657 0.3686603 -2.6849466 1.64108221e-38 4 2498
6.9925585 0.3710718 -2.6688826 1.64108221e-38 4 2498
6.9768082 0.3733841 -2.6529724 1.64108221e-38 4 2498
6.9611107 0.3755989 -2.6372108 1.64108221e-38 4 2498
6.9454620 0.3777177 -2.6215929 1.64108221e-38 4 2498
6.9298582 0.3797420 -2.6061139 1.64108221e-38 4 2498
6.9142956 0.3816730 -2.5907691 1.64108221e-38 4 2498
6.8987704 0.3835121 -2.5755538 1.64108221e-38 4 2498
6.8832789 0.3852605 -2.5604637 1.64108221e-38 4 2498
6.5058422 0.5550509 -2.7957888 1.64108221e-38 4 2374
7.6811152 0.0000000 -1.9413825 9.40395425e-39 3 1489
7.6610360 0.0000000 -1.9135317 9.40395425e-39 3 1489
7.6405932 0.0000000 -1.8859468 9.40395425e-39 3 1489
7.6197904 0.0000000 -1.8586323 9.40395425e-39 3 1489
7.5986310 0.0000000 -1.8315931 9.40395425e-39 3 1489
7.5771188 0.0000000 -1.8048337 9.40395425e-39 3 1489
7.5552575 0.0000000 -1.7783588 9.40395425e-39 3 1489
7.5330507 0.0000000 -1.7521730 9.40395425e-39 3 1489
7.5105024 0.0000000 -1.7262806 9.40395425e-39 3 1489
7.4876164 0.0000000 -1.7006863 9.40395425e-39 3 1489
7.4643967 0.0000000 -1.6753944 9.40395425e-39 3 1489
6.5655728 0.4623867 -2.4862969 1.64108221e-38 4 1972
7.4169720 0.0000000 -1.6257351 9.40395425e-39 3 1489
7.3927752 0.0000000 -1.6013762 9.40395425e-39 3 1489
7.3682610 0.0000000 -1.5773368 9.40395425e-39 3 1489
7.3434336 0.0000000 -1.5536211 9.40395425e-39 3 1489
7.3182972 0.0000000 -1.5302331 9.40395425e-39 3 1489
7.2928562 0.0000000 -1.5071767 9.40395425e-39 3 1489
7.2671150 0.0000000 -1.4844561 9.40395425e-39 3 1489
7.2410779 0.0000000 -1.4620751 9.40395425e-39 3 1489
7.2147495 0.0000000 -1.4400375 9.40395425e-39 3 1489
7.1881344 0.0000000 -1.4183472 9.40395425e-39 3 1489
7.1612370 0.0000000 -1.3970078 9.40395425e-39 3 1489
7.1340620 0.0000000 -1.3760231 9.40395425e-39 3 1489
7.1066141 0.0000000 -1.3553966 9.40395425e-39 3 1489
7.0788980 0.0000000 -1.3351320 9.40395425e-39 3 1489
7.0509185 0.0000000 -1.3152326 9.40395425e-39 3 1489
7.0226803 0.0000000 -1.2957020 9.40395425e-39 3 1489
6.9941884 0.0000000 -1.2765434 9.40395425e-39 3 1489
6.9654477 0.0000000 -1.2577603 9.40395425e-39 3 1489
6.9364630 0.0000000 -1.2393557 9.40395425e-39 3 1489
6.9072395 0.0000000 -1.2213329 9.40395425e-39 3 1489
6.8777820 0.0000000 -1.2036949 9.40395425e-39 3 1489
6.8480958 0.0000000 -1.1864449 9.40395425e-39 3 1489
6.8181858 0.0000000 -1.1695858 9.40395425e-39 3 1489
6.7880572 0.0000000 -1.1531204 9.40395425e-39 3 1489
6.7577153 0.0000000 -1.1370516 9.40395425e-39 3 1489
6.7271652 0.0000000 -1.1213822 9.40395425e-39 3 1489
6.6964122 0.0000000 -1.1061149 9.40395425e-39 3 1489
6.6654616 0.0000000 -1.0912523 9.40395425e-39 3 1489
6.6343187 0.0000000 -1.0767969 9.40395425e-39 3 1489
6.6029888 0.0000000 -1.0627513 9.40395425e-39 3 1489
6.5714775 0.0000000 -1.0491179 9.40395425e-39 3 1489
6.5397900 0.0000000 -1.0358989 9.40395425e-39 3 1489
6.5079318 0.0000000 -1.0230967 9.40395425e-39 3 1489
6.4759085 0.0000000 -1.0107135 9.40395425e-39 3 1489
6.4437254 0.0000000 -0.9987515 9.40395425e-39 3 1489
6.4113883 0.0000000 -0.9872126 9.40395425e-39 3 1489
6.3789025 0.0000000 -0.9760988 9.40395425e-39 3 1489
6.3462738 0.0000000 -0.9654121 9.40395425e-39 3 1489
6.3135077 0.0000000 -0.9551543 9.40395425e-39 3 1489
6.2806099 0.0000000 -0.9453272 9.40395425e-39 3 1489
6.2475861 0.0000000 -0.9359325 9.40395425e-39 3 1489
6.2144418 0.0000000 -0.9269717 9.40395425e-39 3 1489
6.1811828 0.0000000 -0.9184465 9.40395425e-39 3 1489
6.1478149 0.0000000 -0.9103583 9.40395425e-39 3 1489
6.1143437 0.0000000 -0.9027084 9.40395425e-39 3 1489
6.0807751 0.0000000 -0.8954982 9.40395425e-39 3 1489
6.0471148 0.0000000 -0.8887290 9.40395425e-39 3 1489
6.0133686 0.0000000 -0.8824019 9.40395425e-39 3 1489
5.9795424 0.0000000 -0.8765179 9.40395425e-39 3 1489
5.9456418 0.0000000 -0.8710782 9.40395425e-39 3 1489
5.9116728 0.0000000 -0.8660836 9.40395425e-39 3 1489
5.8776413 0.0000000 -0.8615350 9.40395425e-39 3 1489
5.8435529 0.0000000 -0.8574331 9.40395425e-39 3 1489
5.8094138 0.0000000 -0.8537788 9.40395425e-39 3 1489
5.7752296 0.0000000 -0.8505726 9.40395425e-39 3 1489
5.7410063 0.0000000 -0.8478150 9.40395425e-39 3 1489
5.7067498 0.0000000 -0.8455066 9.40395425e-39 3 1489
5.6724659 0.0000000 -0.8436478 9.40395425e-39 3 1489
5.6381606 0.0000000 -0.8422387 9.40395425e-39 3 1489
5.6038398 0.0000000 -0.8412798 9.40395425e-39 3 1489
5.5695093 0.0000000 -0.8407712 9.40395425e-39 3 1489
5.5351752 0.0000000 -0.8407129 9.40395425e-39 3 1489
5.5008432 0.0000000 -0.8411050 9.40395425e-39 3 1489
5.4665193 0.0000000 -0.8419473 9.40395425e-39 3 1489
5.4322095 0.0000000 -0.8432398 9.40395425e-39 3 1489
5.3979195 0.0000000 -0.8449823 9.40395425e-39 3 1489
5.3636553 0.0000000 -0.8471744 9.40395425e-39 3 1489
5.3294229 0.0000000 -0.8498157 9.40395425e-39 3 1489
5.2952280 0.0000000 -0.8529058 9.40395425e-39 3 1489
5.2610766 0.0000000 -0.8564442 9.40395425e-39 3 1489
5.2269745 0.0000000 -0.8604302 9.40395425e-39 3 1489
5.1929277 0.0000000 -0.8648633 9.40395425e-39 3 1489
5.1589420 0.0000000 -0.8697425 9.40395425e-39 3 1489
5.1250231 0.0000000 -0.8750671 9.40395425e-39 3 1489
5.0911771 0.0000000 -0.8808361 9.40395425e-39 3 1489
5.0574096 0.0000000 -0.8870486 9.40395425e-39 3 1489
5.0237265 0.0000000 -0.8937035 9.40395425e-39 3 1489
4.9901336 0.0000000 -0.9007997 9.40395425e-39 3 1489
4.9566367 0.0000000 -0.9083358 9.40395425e-39 3 1489
4.9232415 0.0000000 -0.9163107 9.40395425e-39 3 1489
4.8899538 0.0000000 -0.9247230 9.40395425e-39 3 1489
4.8567793 0.0000000 -0.9335711 9.40395425e-39 3 1489
4.8237237 0.0000000 -0.9428537 9.40395425e-39 3 1489
4.7907927 0.0000000 -0.9525690 9.40395425e-39 3 1489
4.7579919 0.0000000 -0.9627155 9.40395425e-39 3 1489
4.7253271 0.0000000 -0.9732913 9.40395425e-39 3 1489
4.6928038 0.0000000 -0.9842947 9.40395425e-39 3 1489
4.6604277 0.0000000 -0.9957237 9.40395425e-39 3 1489
4.6282042 0.0000000 -1.0075765 9.40395425e-39 3 1489
4.5961390 0.0000000 -1.0198508 9.40395425e-39 3 1489
4.5642376 0.0000000 -1.0325448 9.40395425e-39 3 1489
4.5325054 0.0000000 -1.0456560 9.40395425e-39 3 1489
4.5009479 0.0000000 -1.0591824 9.40395425e-39 3 1489
4.4695705 0.0000000 -1.0731216 9.40395425e-39 3 1489
4.4383787 0.0000000 -1.0874711 9.40395425e-39 3 1489
4.4073778 0.0000000 -1.1022285 9.40395425e-39 3 1489
4.3765731 0.0000000 -1.1173913 9.40395425e-39 3 1489
4.3459700 0.0000000 -1.1329569 9.40395425e-39 3 1489
4.3155737 0.0000000 -1.1489225 9.40395425e-39 3 1489
4.2853894 0.0000000 -1.1652855 9.40395425e-39 3 1489
4.2554223 0.0000000 -1.1820430 9.40395425e-39 3 1489
4.2256777 0.0000000 -1.1991921 9.40395425e-39 3 1489
4.1961605 0.0000000 -1.2167299 9.40395425e-39 3 1489
4.1668759 0.0000000 -1.2346534 9.40395425e-39 3 1489
4.1378289 0.0000000 -1.2529594 9.40395425e-39 3 1489
4.1090246 0.0000000 -1.2716449 9.40395425e-39 3 1489
4.0804678 0.0000000 -1.2907066 9.40395425e-39 3 1489
4.0521635 0.0000000 -1.3101413 9.40395425e-39 3 1489
4.0241166 0.0000000 -1.3299455 9.40395425e-39 3 1489
3.9963318 0.0000000 -1.3501159 9.40395425e-39 3 1489
3.9688140 0.0000000 -1.3706490 9.40395425e-39 3 1489
3.9415679 0.0000000 -1.3915413 9.40395425e-39 3 1489
3.9145982 0.0000000 -1.4127892 9.40395425e-39 3 1489
3.8879096 0.0000000 -1.4343891 9.40395425e-39 3 1489
3.8615065 0.0000000 -1.4563371 9.40395425e-39 3 1489
3.8353936 0.0000000 -1.4786296 9.40395425e-39 3 1489
3.8095754 0.0000000 -1.5012627 9.40395425e-39 3 1489
3.7840563 0.0000000 -1.5242325 9.40395425e-39 3 1489
3.7588406 0.0000000 -1.5475351 9.40395425e-39 3 1489
3.7339328 0.0000000 -1.5711664 9.40395425e-39 3 1489
3.7093371 0.0000000 -1.5951223 9.40395425e-39 3 1489
3.6850577 0.0000000 -1.6193989 9.40395425e-39 3 1489
3.6610989 0.0000000 -1.6439918 9.40395425e-39 3 1489
3.6374647 0.0000000 -1.6688969 9.40395425e-39 3 1489
3.6141592 0.0000000 -1.6941098 9.40395425e-39 3 1489
3.5911864 0.0000000 -1.7196263 9.40395425e-39 3 1489
3.5685503 0.0000000 -1.7454419 9.40395425e-39 3 1489
3.5462548 0.0000000 -1.7715522 9.40395425e-39 3 1489
3.5243037 0.0000000 -1.7979527 9.40395425e-39 3 1489
3.5027007 0.0000000 -1.8246389 9.40395425e-39 3 1489
3.4814497 0.0000000 -1.8516061 9.40395425e-39 3 1489
3.4605542 0.0000000 -1.8788497 9.40395425e-39 3 1489
3.4400179 0.0000000 -1.9063651 9.40395425e-39 3 1489
3.4198442 0.0000000 -1.9341475 9.40395425e-39 3 1489
3.4000367 0.0000000 -1.9621922 9.40395425e-39 3 1489
3.3805988 0.0000000 -1.9904942 9.40395425e-39 3 1489
3.3615338 0.0000000 -2.0190488 9.40395425e-39 3 1489
3.3428449 0.0000000 -2.0478509 9.40395425e-39 3 1489
3.3245355 0.0000000 -2.0768958 9.40395425e-39 3 1489
3.3066086 0.0000000 -2.1061783 9.40395425e-39 3 1489
3.2890674 0.0000000 -2.1356934 9.40395425e-39 3 1489
3.2719148 0.0000000 -2.1654361 9.40395425e-39 3 1489
3.2551538 0.0000000 -2.1954012 9.40395425e-39 3 1489
3.2387873 0.0000000 -2.2255836 9.40395425e-39 3 1489
3.2228182 0.0000000 -2.2559781 9.40395425e-39 3 1489
3.2072491 0.0000000 -2.2865794 9.40395425e-39 3 1489
3.1920827 0.0000000 -2.3173823 9.40395425e-39 3 1489
3.1773216 0.0000000 -2.3483815 9.40395425e-39 3 1489
3.1629685 0.0000000 -2.3795716 9.40395425e-39 3 1489
3.1490257 0.0000000 -2.4109473 9.40395425e-39 3 1489
3.1354956 0.0000000 -2.4425033 9.40395425e-39 3 1489
3.1223807 0.0000000 -2.4742339 9.40395425e-39 3 1489
3.1096830 0.0000000 -2.5061339 9.40395425e-39 3 1489
3.0974049 0.0000000 -2.5381977 9.40395425e-39 3 1489
3.0855484 0.0000000 -2.5704198 9.40395425e-39 3 1489
3.0741156 0.0000000 -2.6027946 9.40395425e-39 3 1489
3.0631085 0.0000000 -2.6353166 9.40395425e-39 3 1489
3.0525288 0.0000000 -2.6679802 9.40395425e-39 3 1489
3.0423786 0.0000000 -2.7007797 9.40395425e-39 3 1489
3.0326594 0.0000000 -2.7337096 9.40395425e-39 3 1489
3.0233730 0.0000000 -2.7667641 9.40395425e-39 3 1489
3.0145210 0.0000000 -2.7999376 9.40395425e-39 3 1489
3.0061049 0.0000000 -2.8332243 9.40395425e-39 3 1489
2.9981261 0.0000000 -2.8666186 9.40395425e-39 3 1489
2.9905860 0.0000000 -2.9001146 9.40395425e-39 3 1489
2.9834860 0.0000000 -2.9337067 9.40395425e-39 3 1489
2.9768272 0.0000000 -2.9673890 9.40395425e-39 3 1489
2.9706107 0.0000000 -3.0011558 9.40395425e-39 3 1489
2.9648377 0.0000000 -3.0350012 9.40395425e-39 3 1489
2.9595092 0.0000000 -3.0689194 9.40395425e-39 3 1489
2.9546260 0.0000000 -3.1029046 9.40395425e-39 3 1489
2.9501890 0.0000000 -3.1369509 9.40395425e-39 3 1489
2.9461990 0.0000000 -3.1710525 9.40395425e-39 3 1489
2.9426567 0.0000000 -3.2052034 9.40395425e-39 3 1489
2.9395626 0.0000000 -3.2393980 9.40395425e-39 3 1489
2.9369173 0.0000000 -3.2736301 9.40395425e-39 3 1489
2.9347212 0.0000000 -3.3078940 9.40395425e-39 3 1489
2.9329748 0.0000000 -3.3421838 9.40395425e-39 3 1489
2.9316782 0.0000000 -3.3764935 9.40395425e-39 3 1489
2.9308319 0.0000000 -3.4108173 9.40395425e-39 3 1489
2.9304358 0.0000000 -3.4451492 9.40395425e-39 3 1489
2.9304901 0.0000000 -3.4794834 9.40395425e-39 3 1489
2.9309948 0.0000000 -3.5138139 9.40395425e-39 3 1489
2.9319497 0.0000000 -3.5481348 9.40395425e-39 3 1489
2.9333547 0.0000000 -3.5824403 9.40395425e-39 3 1489
2.9352096 0.0000000 -3.6167243 9.40395425e-39 3 1489
2.9375140 0.0000000 -3.6509811 9.40395425e-39 3 1489
2.9402676 0.0000000 -3.6852048 9.40395425e-39 3 1489
2.9434698 0.0000000 -3.7193893 9.40395425e-39 3 1489
2.9471202 0.0000000 -3.7535289 9.40395425e-39 3 1489
2.9512181 0.0000000 -3.7876177 9.40395425e-39 3 1489
2.9557627 0.0000000 -3.8216498 9.40395425e-39 3 1489
2.9607534 0.0000000 -3.8556194 9.40395425e-39 3 1489
2.9661892 0.0000000 -3.8895206 9.40395425e-39 3 1489
2.9720692 0.0000000 -3.9233475 9.40395425e-39 3 1489
2.9783924 0.0000000 -3.9570945 9.40395425e-39 3 1489
2.9851577 0.0000000 -3.9907555 9.40395425e-39 3 1489
3.0570245 0.0253021 -4.0100002 2.11127992e-38 5 1472
3.2031067 0.0797118 -4.0100002 2.11127992e-38 5 1472
3.3337632 0.1282260 -4.0100002 2.11127992e-38 5 1472
3.4513534 0.1717460 -4.0100002 2.11127992e-38 5 1472
3.5577787 0.2109982 -4.0100002 2.11127992e-38 5 1472
3.6545891 0.2465745 -4.0100002 2.11127992e-38 5 1472
3.7430603 0.2789622 -4.0100002 2.11127992e-38 5 1472
3.8000000 0.2988375 -4.0177645 2.11127992e-38 5 1473
3.8000000 0.2958198 -4.0431503 2.11127992e-38 5 1473
3.8000000 0.2926538 -4.0687599 2.11127992e-38 5 1473
3.8000000 0.2893363 -4.0946053 2.11127992e-38 5 1473
3.8000000 0.2858642 -4.1206988 2.11127992e-38 5 1473
3.8000000 0.2822338 -4.1470531 2.11127992e-38 5 1473
3.8000000 0.2784416 -4.1736813 2.11127992e-38 5 1473
3.8000000 0.2744835 -4.2005970 2.11127992e-38 5 1473
3.8000000 0.2703556 -4.2278144 2.11127992e-38 5 1473
3.1663920 0.0000000 -4.5443202 9.40395425e-39 3 1489
3.1808437 0.0000000 -4.5754648 9.40395425e-39 3 1489
3.1957028 0.0000000 -4.6064171 9.40395425e-39 3 1489
3.2109665 0.0000000 -4.6371719 9.40395425e-39 3 1489
3.2266323 0.0000000 -4.6677238 9.40395425e-39 3 1489
3.2426976 0.0000000 -4.6980676 9.40395425e-39 3 1489
3.2591594 0.0000000 -4.7281981 9.40395425e-39 3 1489
3.2760151 0.0000000 -4.7581100 9.40395425e-39 3 1489
3.2932617 0.0000000 -4.7877983 9.40395425e-39 3 1489
3.3108962 0.0000000 -4.8172578 9.40395425e-39 3 1489
3.3289156 0.0000000 -4.8464835 9.40395425e-39 3 1489
3.3473168 0.0000000 -4.8754702 9.40395425e-39 3 1489
3.3660966 0.0000000 -4.9042132 9.40395425e-39 3 1489
3.3852519 0.0000000 -4.9327073 9.40395425e-39 3 1489
3.4047792 0.0000000 -4.9609477 9.40395425e-39 3 1489
3.4246753 0.0000000 -4.9889295 9.40395425e-39 3 1489
3.4449368 0.0000000 -5.0166480 9.40395425e-39 3 1489
3.4655600 0.0000000 -5.0440983 9.40395425e-39 3 1489
3.4865416 0.0000000 -5.0712757 9.40395425e-39 3 1489
3.5078778 0.0000000 -5.0981756 9.40395425e-39 3 1489
3.5295650 0.0000000 -5.1247933 9.40395425e-39 3 1489
3.5515996 0.0000000 -5.1511242 9.40395425e-39 3 1489
3.5739775 0.0000000 -5.1771639 9.40395425e-39 3 1489
3.5966952 0.0000000 -5.2029078 9.40395425e-39 3 1489
3.6197485 0.0000000 -5.2283514 9.40395425e-39 3 1489
3.6431337 0.0000000 -5.2534905 9.40395425e-39 3 1489
3.6668465 0.0000000 -5.2783207 9.40395425e-39 3 1489
3.6908830 0.0000000 -5.3028377 9.40395425e-39 3 1489
3.7152391 0.0000000 -5.3270374 9.40395425e-39 3 1489
3.7399104 0.0000000 -5.3509154 9.40395425e-39 3 1489
3.7648929 0.0000000 -5.3744678 9.40395425e-39 3 1489
3.7901821 0.0000000 -5.3976905 9.40395425e-39 3 1489
3.8157738 0.0000000 -5.4205795 9.40395425e-39 3 1489
3.8416635 0.0000000 -5.4431308 9.40395425e-39 3 1489
3.8678467 0.0000000 -5.4653406 9.40395425e-39 3 1489
3.8943191 0.0000000 -5.4872050 9.40395425e-39 3 1489
3.9210759 0.0000000 -5.5087203 9.40395425e-39 3 1489
3.9481127 0.0000000 -5.5298828 9.40395425e-39 3 1489
3.9754247 0.0000000 -5.5506888 9.40395425e-39 3 1489
4.0030073 0.0000000 -5.5711348 9.40395425e-39 3 1489
4.0308557 0.0000000 -5.5912173 9.40395425e-39 3 1489
4.0589652 0.0000000 -5.6109327 9.40395425e-39 3 1489
4.0873308 0.0000000 -5.6302777 9.40395425e-39 3 1489
4.1159477 0.0000000 -5.6492490 9.40395425e-39 3 1489
4.1448110 0.0000000 -5.6678433 9.40395425e-39 3 1489
4.1739158 0.0000000 -5.6860573 9.40395425e-39 3 1489
4.2032569 0.0000000 -5.7038881 9.40395425e-39 3 1489
4.2328294 0.0000000 -5.7213325 9.40395425e-39 3 1489
4.2626282 0.0000000 -5.7383874 9.40395425e-39 3 1489
4.2954079 0.0021987 -5.7500000 2.11127992e-38 5 8
4.3341735 0.0092158 -5.7500000 2.11127992e-38 5 8
4.3724041 0.0159668 -5.7500000 2.11127992e-38 5 8
4.4101237 0.0224594 -5.7500000 2.11127992e-38 5 8
4.4473552 0.0287008 -5.7500000 2.11127992e-38 5 8
4.4841205 0.0346980 -5.7500000 2.11127992e-38 5 8
4.5204409 0.0404575 -5.7500000 2.11127992e-38 5 8
4.5563365 0.0459855 -5.7500000 2.11127992e-38 5 8
4.5918270 0.0512879 -5.7500000 2.11127992e-38 5 8
4.6269311 0.0563702 -5.7500000 2.11127992e-38 5 8
4.6616671 0.0612377 -5.7500000 2.11127992e-38 5 8
4.6960525 0.0658953 -5.7500000 2.11127992e-38 5 8
4.7301042 0.0703478 -5.7500000 2.11127992e-38 5 8
4.7638385 0.0745995 -5.7500000 2.11127992e-38 5 8
4.7972715 0.0786548 -5.7500000 2.11127992e-38 5 8
4.8304184 0.0825174 -5.7500000 2.11127992e-38 5 8
4.8632941 0.0861913 -5.7500000 2.11127992e-38 5 8
4.8959132 0.0896798 -5.7500000 2.11127992e-38 5 8
4.9282898 0.0929863 -5.7500000 2.11127992e-38 5 8
4.9604375 0.0961140 -5.7500000 2.11127992e-38 5 8
4.9923697 0.0990656 -5.7500000 2.11127992e-38 5 8
5.0240995 0.1018440 -5.7500000 2.11127992e-38 5 8
5.0400000 0.0759991 -5.8228140 2.11127992e-38 5 60
5.0459772 0.0273936 -5.9540000 1.28842864e-38 1 124
5.0799520 0.0298692 -5.9540000 1.28842864e-38 1 124
5.1137601 0.0321662 -5.9540000 1.28842864e-38 1 148
5.1474143 0.0342865 -5.9540000 1.28842864e-38 1 148
5.1809271 0.0362321 -5.9540000 1.28842864e-38 1 148
5.2143108 0.0380047 -5.9540000 1.28842864e-38 1 148
5.2475777 0.0396058 -5.9540000 1.28842864e-38 1 148
5.2807398 0.0410369 -5.9540000 1.28842864e-38 1 148
5.3138088 0.0422992 -5.9540000 1.28842864e-38 1 148
5.3467966 0.0433938 -5.9540000 1.28842864e-38 1 148
5.3797147 0.0443216 -5.9540000 1.28842864e-38 1 148
5.4125746 0.0450835 -5.9540000 1.28842864e-38 1 148
5.4453879 0.0456801 -5.9540000 1.28842864e-38 1 148
5.4781658 0.0461119 -5.9540000 1.28842864e-38 1 148
5.5109196 0.0463794 -5.9540000 1.28842864e-38 1 148
5.5436608 0.0464827 -5.9540000 1.28842864e-38 1 148
5.5764005 0.0464219 -5.9540000 1.28842864e-38 1 148
5.6091500 0.0461969 -5.9540000 1.28842864e-38 1 148
5.6419206 0.0458077 -5.9540000 1.28842864e-38 1 148
5.6747236 0.0452538 -5.9540000 1.28842864e-38 1 148
5.7075704 0.0445347 -5.9540000 1.28842864e-38 1 148
5.7404723 0.0436499 -5.9540000 1.28842864e-38 1 148
5.7734409 0.0425986 -5.9540000 1.28842864e-38 1 148
5.8064878 0.0413798 -5.9540000 1.28842864e-38 1 148
5.8396246 0.0399925 -5.9540000 1.28842864e-38 1 148
5.8728633 0.0384356 -5.9540000 1.28842864e-38 1 148
5.9062156 0.0367075 -5.9540000 1.28842864e-38 1 148
5.9396938 0.0348069 -5.9540000 1.28842864e-38 1 148
5.9733102 0.0327319 -5.9540000 1.28842864e-38 1 148
6.0070772 0.0304809 -5.9540000 1.28842864e-38 1 130
6.0410076 0.0280518 -5.9540000 1.28842864e-38 1 130
6.0500002 0.0718658 -5.8351102 2.11127992e-38 5 62
6.0635146 0.1025354 -5.7500000 2.11127992e-38 5 8
6.0951941 0.0998014 -5.7500000 2.11127992e-38 5 8
6.1270727 0.0968948 -5.7500000 2.11127992e-38 5 8
6.1591634 0.0938130 -5.7500000 2.11127992e-38 5 8
6.1914794 0.0905531 -5.7500000 2.11127992e-38 5 8
6.2240343 0.0871120 -5.7500000 2.11127992e-38 5 8
6.2568423 0.0834864 -5.7500000 2.11127992e-38 5 8
6.2534186 0.0000000 -5.7389322 9.40395425e-39 3 1489
6.2832744 0.0000000 -5.7294817 9.40395425e-39 3 1489
6.3130037 0.0000000 -5.7196405 9.40395425e-39 3 1489
6.3426013 0.0000000 -5.7094101 9.40395425e-39 3 1489
6.3720621 0.0000000 -5.6987924 9.40395425e-39 3 1489
6.4013812 0.0000000 -5.6877891 9.40395425e-39 3 1489
6.4305534 0.0000000 -5.6764022 9.40395425e-39 3 1489
6.4595738 0.0000000 -5.6646337 9.40395425e-39 3 1489
6.4884373 0.0000000 -5.6524855 9.40395425e-39 3 1489
6.5171389 0.0000000 -5.6399597 9.40395425e-39 3 1489
6.5456738 0.0000000 -5.6270586 9.40395425e-39 3 1489
6.5740370 0.0000000 -5.6137842 9.40395425e-39 3 1489
6.6022237 0.0000000 -5.6001390 9.40395425e-39 3 1489
6.6302289 0.0000000 -5.5861252 9.40395425e-39 3 1489
6.6580480 0.0000000 -5.5717453 9.40395425e-39 3 1489
6.6856760 0.0000000 -5.5570017 9.40395425e-39 3 1489
6.7131082 0.0000000 -5.5418970 9.40395425e-39 3 1489
6.7403399 0.0000000 -5.5264338 9.40395425e-39 3 1489
6.7673665 0.0000000 -5.5106147 9.40395425e-39 3 1489
6.7941833 0.0000000 -5.4944425 9.40395425e-39 3 1489
6.8207856 0.0000000 -5.4779199 9.40395425e-39 3 1489
6.8471689 0.0000000 -5.4610497 9.40395425e-39 3 1489
6.8733286 0.0000000 -5.4438350 9.40395425e-39 3 1489
6.8992603 0.0000000 -5.4262786 9.40395425e-39 3 1489
6.9249595 0.0000000 -5.4083836 9.40395425e-39 3 1489
6.9504217 0.0000000 -5.3901530 9.40395425e-39 3 1489
6.9756427 0.0000000 -5.3715900 9.40395425e-39 3 1489
7.0006179 0.0000000 -5.3526978 9.40395425e-39 3 1489
7.0253432 0.0000000 -5.3334796 9.40395425e-39 3 1489
7.0498143 0.0000000 -5.3139387 9.40395425e-39 3 1489
7.0740270 0.0000000 -5.2940786 9.40395425e-39 3 1489
7.0979771 0.0000000 -5.2739025 9.40395425e-39 3 1489
7.1216605 0.0000000 -5.2534140 9.40395425e-39 3 1489
7.1450730 0.0000000 -5.2326167 9.40395425e-39 3 1489
7.1682108 0.0000000 -5.2115140 9.40395425e-39 3 1489
7.1910698 0.0000000 -5.1901097 9.40395425e-39 3 1489
7.2136461 0.0000000 -5.1684073 9.40395425e-39 3 1489
7.2359357 0.0000000 -5.1464107 9.40395425e-39 3 1489
7.2579349 0.0000000 -5.1241236 9.40395425e-39 3 1489
7.2796399 0.0000000 -5.1015499 9.40395425e-39 3 1489
7.3010469 0.0000000 -5.0786934 9.40395425e-39 3 1489
7.3221523 0.0000000 -5.0555580 9.40395425e-39 3 1489
7.3429524 0.0000000 -5.0321479 9.40395425e-39 3 1489
7.3634436 0.0000000 -5.0084669 9.40395425e-39 3 1489
7.3836224 0.0000000 -4.9845191 9.40395425e-39 3 1489
7.4034854 0.0000000 -4.9603088 9.40395425e-39 3 1489
7.4230291 0.0000000 -4.9358400 9.40395425e-39 3 1489
7.4422502 0.0000000 -4.9111169 9.40395425e-39 3 1489
7.4611453 0.0000000 -4.8861438 9.40395425e-39 3 1489
7.4797113 0.0000000 -4.8609251 9.40395425e-39 3 1489
7.4979448 0.0000000 -4.8354649 9.40395425e-39 3 1489
7.5158428 0.0000000 -4.8097679 9.40395425e-39 3 1489
7.5334022 0.0000000 -4.7838382 9.40395425e-39 3 1489
7.5506200 0.0000000 -4.7576805 9.40395425e-39 3 1489
7.5674932 0.0000000 -4.7312991 9.40395425e-39 3 1489
7.5840189 0.0000000 -4.7046987 9.40395425e-39 3 1489
7.6001943 0.0000000 -4.6778839 9.40395425e-39 3 1489
7.6139998 0.0009751 -4.6496961 1.28842864e-38 1 216
7.6139998 0.0083909 -4.6138500 1.28842864e-38 1 222
7.4099998 0.1127325 -4.4679066 2.11127992e-38 5 16
7.4099998 0.1189236 -4.4365202 2.11127992e-38 5 16
7.4099998 0.1248793 -4.4055635 2.11127992e-38 5 16
7.4099998 0.1306064 -4.3750173 2.11127992e-38 5 16
7.4099998 0.1361114 -4.3448631 2.11127992e-38 5 16
7.4099998 0.1414003 -4.3150833 2.11127992e-38 5 16
7.4099998 0.1464789 -4.2856609 2.11127992e-38 5 16
7.4099998 0.1513525 -4.2565795 2.11127992e-38 5 16
7.4099998 0.1560265 -4.2278235 2.11127992e-38 5 16
7.4099998 0.1605056 -4.1993776 2.11127992e-38 5 16
7.4099998 0.1647945 -4.1712272 2.11127992e-38 5 16
7.4099998 0.1688974 -4.1433582 2.11127992e-38 5 16
7.4099998 0.1728187 -4.1157569 2.11127992e-38 5 16
7.4099998 0.1765621 -4.0884103 2.11127992e-38 5 16
7.4099998 0.1801313 -4.0613053 2.11127992e-38 5 16
7.4099998 0.1835299 -4.0344297 2.11127992e-38 5 16
7.4175511 0.1834631 -4.0100002 2.11127992e-38 5 1478
7.5120899 0.1454100 -4.0100002 2.11127992e-38 5 1478
7.6158898 0.1034749 -4.0100002 2.11127992e-38 5 1478
7.7304230 0.0570413 -4.0100002 2.11127992e-38 5 1478
7.8574914 0.0053546 -4.0100002 2.11127992e-38 5 1478
7.8770023 0.0000000 -3.9824654 9.40395425e-39 3 1489
7.8836790 0.0000000 -3.9518696 9.40395425e-39 3 1489
7.8899538 0.0000000 -3.9211888 9.40395425e-39 3 1489
7.8958256 0.0000000 -3.8904285 9.40395425e-39 3 1489
7.9012934 0.0000000 -3.8595937 9.40395425e-39 3 1489
7.9063563 0.0000000 -3.8286899 9.40395425e-39 3 1489
7.9110134 0.0000000 -3.7977223 9.40395425e-39 3 1489
7.9152638 0.0000000 -3.7666963 9.40395425e-39 3 1489
7.9191070 0.0000000 -3.7356172 9.40395425e-39 3 1489
7.9225422 0.0000000 -3.7044904 9.40395425e-39 3 1489
7.9255688 0.0000000 -3.6733212 9.40395425e-39 3 1489
7.9281862 0.0000000 -3.6421149 9.40395425e-39 3 1489
7.9303942 0.0000000 -3.6108771 9.40395425e-39 3 1489
7.9321921 0.0000000 -3.5796129 9.40395425e-39 3 1489
7.9335799 0.0000000 -3.5483279 9.40395425e-39 3 1489
7.9345571 0.0000000 -3.5170273 9.40395425e-39 3 1489
7.9351238 0.0000000 -3.4857166 9.40395425e-39 3 1489
7.9352796 0.0000000 -3.4544012 9.40395425e-39 3 1489
7.9350247 0.0000000 -3.4230865 9.40395425e-39 3 1489
7.9343591 0.0000000 -3.3917777 9.40395425e-39 3 1489
7.9332828 0.0000000 -3.3604804 9.40395425e-39 3 1489
7.9317961 0.0000000 -3.3291999 9.40395425e-39 3 1489
7.9298992 0.0000000 -3.2979416 9.40395425e-39 3 1489
7.9275925 0.0000000 -3.2667109 9.40395425e-39 3 1489
7.9248764 0.0000000 -3.2355131 9.40395425e-39 3 1489
7.9217512 0.0000000 -3.2043536 9.40395425e-39 3 1489
7.9182176 0.0000000 -3.1732378 9.40395425e-39 3 1489
7.9142762 0.0000000 -3.1421710 9.40395425e-39 3 1489
7.9099276 0.0000000 -3.1111586 9.40395425e-39 3 1489
7.9051725 0.0000000 -3.0802059 9.40395425e-39 3 1489
7.9000119 0.0000000 -3.0493183 9.40395425e-39 3 1489
7.8944466 0.0000000 -3.0185010 9.40395425e-39 3 1489
7.8884775 0.0000000 -2.9877593 9.40395425e-39 3 1489
7.8821057 0.0000000 -2.9570986 9.40395425e-39 3 1489
7.8753323 0.0000000 -2.9265241 9.40395425e-39 3 1489
7.8681585 0.0000000 -2.8960410 9.40395425e-39 3 1489
7.8605853 0.0000000 -2.8656547 9.40395425e-39 3 1489
7.8526143 0.0000000 -2.8353704 9.40395425e-39 3 1489
7.8442467 0.0000000 -2.8051932 9.40395425e-39 3 1489
7.1359286 0.3058051 -2.9840081 1.64108221e-38 4 2270
7.8263278 0.0000000 -2.7451810 9.40395425e-39 3 1489
7.1461306 0.2955857 -2.9349235 1.64108221e-38 4 1978
7.1089206 0.3089588 -2.9243356 1.64108221e-38 4 1978
7.0730909 0.3217191 -2.9141405 1.64108221e-38 4 1978
7.0385547 0.3339042 -2.9043134 1.64108221e-38 4 1978
7.0149685 0.3411760 -2.8910678 1.64108221e-38 4 41
7.0074036 0.3411760 -2.8718731 1.64108221e-38 4 41
6.9995875 0.3411760 -2.8527793 1.64108221e-38 4 41
6.9915217 0.3411760 -2.8337897 1.64108221e-38 4 41
6.9832074 0.3411760 -2.8149076 1.64108221e-38 4 41
6.9746462 0.3411760 -2.7961361 1.64108221e-38 4 41
6.9658396 0.3411760 -2.7774785 1.64108221e-38 4 41
6.9567889 0.3411760 -2.7589380 1.64108221e-38 4 41
6.9474958 0.3411760 -2.7405179 1.64108221e-38 4 41
6.9379620 0.3411760 -2.7222212 1.64108221e-38 4 41
6.9281889 0.3411760 -2.7040512 1.64108221e-38 4 41
6.9181783 0.3411760 -2.6860109 1.64108221e-38 4 41
6.9079320 0.3411760 -2.6681034 1.64108221e-38 4 41
6.8974517 0.3411760 -2.6503320 1.64108221e-38 4 41
6.8867391 0.3411760 -2.6326995 1.64108221e-38 4 41
6.8766534 0.3407507 -2.6146649 1.64108221e-38 4 2497
6.8600894 0.3434453 -2.6008270 1.64108221e-38 4 2497
6.8715687 0.3319185 -2.5683359 1.64108221e-38 4 2081
6.5058422 0.5121640 -2.7957888 1.64108221e-38 4 2374
7.4935787 0.0000000 -2.0747277 9.40395425e-39 3 1489
7.4752647 0.0000000 -2.0493254 9.40395425e-39 3 1489
7.4566191 0.0000000 -2.0241655 9.40395425e-39 3 1489
7.4376451 0.0000000 -1.9992523 9.40395425e-39 3 1489
7.4183459 0.0000000 -1.9745901 9.40395425e-39 3 1489
7.3987249 0.0000000 -1.9501833 9.40395425e-39 3 1489
7.3787855 0.0000000 -1.9260359 9.40395425e-39 3 1489
7.3585310 0.0000000 -1.9021521 9.40395425e-39 3 1489
7.3379650 0.0000000 -1.8785360 9.40395425e-39 3 1489
7.3170909 0.0000000 -1.8551917 9.40395425e-39 3 1489
7.2959125 0.0000000 -1.8321233 9.40395425e-39 3 1489
7.2744333 0.0000000 -1.8093346 9.40395425e-39 3 1489
7.2526570 0.0000000 -1.7868296 9.40395425e-39 3 1489
7.2305874 0.0000000 -1.7646122 9.40395425e-39 3 1489
7.2082283 0.0000000 -1.7426862 9.40395425e-39 3 1489
7.1855835 0.0000000 -1.7210554 9.40395425e-39 3 1489
7.1626570 0.0000000 -1.6997235 9.40395425e-39 3 1489
7.1394525 0.0000000 -1.6786941 9.40395425e-39 3 1489
7.1159743 0.0000000 -1.6579709 9.40395425e-39 3 1489
7.0922262 0.0000000 -1.6375574 9.40395425e-39 3 1489
7.0682124 0.0000000 -1.6174572 9.40395425e-39 3 1489
7.0439371 0.0000000 -1.5976737 9.40395425e-39 3 1489
7.0194043 0.0000000 -1.5782104 9.40395425e-39 3 1489
6.9946183 0.0000000 -1.5590705 9.40395425e-39 3 1489
6.9695834 0.0000000 -1.5402574 9.40395425e-39 3 1489
6.9443039 0.0000000 -1.5217742 9.40395425e-39 3 1489
6.9187842 0.0000000 -1.5036243 9.40395425e-39 3 1489
6.8930285 0.0000000 -1.4858106 9.40395425e-39 3 1489
6.8670414 0.0000000 -1.4683363 9.40395425e-39 3 1489
6.8408274 0.0000000 -1.4512044 9.40395425e-39 3 1489
6.8143908 0.0000000 -1.4344178 9.40395425e-39 3 1489
6.7877364 0.0000000 -1.4179795 9.40395425e-39 3 1489
6.7608686 0.0000000 -1.4018921 9.40395425e-39 3 1489
6.7337921 0.0000000 -1.3861586 9.40395425e-39 3 1489
6.7065116 0.0000000 -1.3707816 9.40395425e-39 3 1489
6.6790317 0.0000000 -1.3557637 9.40395425e-39 3 1489
6.6513572 0.0000000 -1.3411076 9.40395425e-39 3 1489
6.6234929 0.0000000 -1.3268157 9.40395425e-39 3 1489
6.5954434 0.0000000 -1.3128906 9.40395425e-39 3 1489
6.5672138 0.0000000 -1.2993346 9.40395425e-39 3 1489
6.5388087 0.0000000 -1.2861501 9.40395425e-39 3 1489
6.5102332 0.0000000 -1.2733392 9.40395425e-39 3 1489
6.4814920 0.0000000 -1.2609043 9.40395425e-39 3 1489
6.4525903 0.0000000 -1.2488475 9.40395425e-39 3 1489
6.4235328 0.0000000 -1.2371708 9.40395425e-39 3 1489
6.3943247 0.0000000 -1.2258762 9.40395425e-39 3 1489
6.3649710 0.0000000 -1.2149657 9.40395425e-39 3 1489
6.3354767 0.0000000 -1.2044413 9.40395425e-39 3 1489
6.3058469 0.0000000 -1.1943045 9.40395425e-39 3 1489
6.2760866 0.0000000 -1.1845574 9.40395425e-39 3 1489
6.2462011 0.0000000 -1.1752014 9.40395425e-39 3 1489
6.2161954 0.0000000 -1.1662382 9.40395425e-39 3 1489
6.1860747 0.0000000 -1.1576694 9.40395425e-39 3 1489
6.1558443 0.0000000 -1.1494964 9.40395425e-39 3 1489
6.1255092 0.0000000 -1.1417206 9.40395425e-39 3 1489
6.0950747 0.0000000 -1.1343434 9.40395425e-39 3 1489
6.0645461 0.0000000 -1.1273661 9.40395425e-39 3 1489
6.0339286 0.0000000 -1.1207898 9.40395425e-39 3 1489
6.0032275 0.0000000 -1.1146156 9.40395425e-39 3 1489
5.9724480 0.0000000 -1.1088447 9.40395425e-39 3 1489
5.9415954 0.0000000 -1.1034781 9.40395425e-39 3 1489
5.9106752 0.0000000 -1.0985165 9.40395425e-39 3 1489
5.8796925 0.0000000 -1.0939610 9.40395425e-39 3 1489
5.8486527 0.0000000 -1.0898123 9.40395425e-39 3 1489
5.8175612 0.0000000 -1.0860711 9.40395425e-39 3 1489
5.7864233 0.0000000 -1.0827380 9.40395425e-39 3 1489
5.7552443 0.0000000 -1.0798137 9.40395425e-39 3 1489
5.7240297 0.0000000 -1.0772985 9.40395425e-39 3 1489
5.6927847 0.0000000 -1.0751930 9.40395425e-39 3 1489
5.6615148 0.0000000 -1.0734976 9.40395425e-39 3 1489
5.6302254 0.0000000 -1.0722125 9.40395425e-39 3 1489
5.5989218 0.0000000 -1.0713378 9.40395425e-39 3 1489
5.5676095 0.0000000 -1.0708739 9.40395425e-39 3 1489
5.5362937 0.0000000 -1.0708207 9.40395425e-39 3 1489
5.5049799 0.0000000 -1.0711783 9.40395425e-39 3 1489
5.4736736 0.0000000 -1.0719467 9.40395425e-39 3 1489
5.4423800 0.0000000 -1.0731255 9.40395425e-39 3 1489
5.4111045 0.0000000 -1.0747148 9.40395425e-39 3 1489
5.3798526 0.0000000 -1.0767142 9.40395425e-39 3 1489
5.3486296 0.0000000 -1.0791233 9.40395425e-39 3 1489
5.3174409 0.0000000 -1.0819418 9.40395425e-39 3 1489
5.2862918 0.0000000 -1.0851691 9.40395425e-39 3 1489
5.2551878 0.0000000 -1.0888047 9.40395425e-39 3 1489
5.2241341 0.0000000 -1.0928480 9.40395425e-39 3 1489
5.1931361 0.0000000 -1.0972983 9.40395425e-39 3 1489
5.1621992 0.0000000 -1.1021548 9.40395425e-39 3 1489
5.1313286 0.0000000 -1.1074166 9.40395425e-39 3 1489
5.1005297 0.0000000 -1.1130830 9.40395425e-39 3 1489
5.0698078 0.0000000 -1.1191528 9.40395425e-39 3 1489
5.0391681 0.0000000 -1.1256251 9.40395425e-39 3 1489
5.0086160 0.0000000 -1.1324988 9.40395425e-39 3 1489
4.9781566 0.0000000 -1.1397726 9.40395425e-39 3 1489
4.9477953 0.0000000 -1.1474453 9.40395425e-39 3 1489
4.9175373 0.0000000 -1.1555156 9.40395425e-39 3 1489
4.8873877 0.0000000 -1.1639821 9.40395425e-39 3 1489
4.8573517 0.0000000 -1.1728433 9.40395425e-39 3 1489
4.8274346 0.0000000 -1.1820978 9.40395425e-39 3 1489
4.7976414 0.0000000 -1.1917439 9.40395425e-39 3 1489
4.7679773 0.0000000 -1.2017799 9.40395425e-39 3 1489
4.7384475 0.0000000 -1.2122042 9.40395425e-39 3 1489
4.7090569 0.0000000 -1.2230149 9.40395425e-39 3 1489
4.6798106 0.0000000 -1.2342102 9.40395425e-39 3 1489
4.6507137 0.0000000 -1.2457882 9.40395425e-39 3 1489
4.6217711 0.0000000 -1.2577468 9.40395425e-39 3 1489
4.5929879 0.0000000 -1.2700841 9.40395425e-39 3 1489
4.5643690 0.0000000 -1.2827978 9.40395425e-39 3 1489
4.5359194 0.0000000 -1.2958858 9.40395425e-39 3 1489
4.5076438 0.0000000 -1.3093459 9.40395425e-39 3 1489
4.4795473 0.0000000 -1.3231757 9.40395425e-39 3 1489
4.4516346 0.0000000 -1.3373728 9.40395425e-39 3 1489
4.4239105 0.0000000 -1.3519349 9.40395425e-39 3 1489
4.3963797 0.0000000 -1.3668593 9.40395425e-39 3 1489
4.3690472 0.0000000 -1.3821436 9.40395425e-39 3 1489
4.3419174 0.0000000 -1.3977851 9.40395425e-39 3 1489
4.3149952 0.0000000 -1.4137812 9.40395425e-39 3 1489
4.2882851 0.0000000 -1.4301289 9.40395425e-39 3 1489
4.2617917 0.0000000 -1.4468256 9.40395425e-39 3 1489
4.2355196 0.0000000 -1.4638684 9.40395425e-39 3 1489
4.2094733 0.0000000 -1.4812544 9.40395425e-39 3 1489
4.1836573 0.0000000 -1.4989805 9.40395425e-39 3 1489
4.1580761 0.0000000 -1.5170437 9.40395425e-39 3 1489
4.1327339 0.0000000 -1.5354408 9.40395425e-39 3 1489
4.1076353 0.0000000 -1.5541689 9.40395425e-39 3 1489
4.0827845 0.0000000 -1.5732245 9.40395425e-39 3 1489
4.0581858 0.0000000 -1.5926044 9.40395425e-39 3 1489
4.0338434 0.0000000 -1.6123054 9.40395425e-39 3 1489
4.0097615 0.0000000 -1.6323239 9.40395425e-39 3 1489
3.9859442 0.0000000 -1.6526566 9.40395425e-39 3 1489
3.9623957 0.0000000 -1.6733000 9.40395425e-39 3 1489
3.9391200 0.0000000 -1.6942504 9.40395425e-39 3 1489
3.9161212 0.0000000 -1.7155044 9.40395425e-39 3 1489
3.8934031 0.0000000 -1.7370582 9.40395425e-39 3 1489
3.8709696 0.0000000 -1.7589082 9.40395425e-39 3 1489
3.8488247 0.0000000 -1.7810505 9.40395425e-39 3 1489
3.8269721 0.0000000 -1.8034814 9.40395425e-39 3 1489
3.8054157 0.0000000 -1.8261970 9.40395425e-39 3 1489
3.7841590 0.0000000 -1.8491934 9.40395425e-39 3 1489
3.7632059 0.0000000 -1.8724666 9.40395425e-39 3 1489
3.7425598 0.0000000 -1.8960127 9.40395425e-39 3 1489
3.7222243 0.0000000 -1.9198276 9.40395425e-39 3 1489
3.7022030 0.0000000 -1.9439072 9.40395425e-39 3 1489
3.6824992 0.0000000 -1.9682473 9.40395425e-39 3 1489
3.6631164 0.0000000 -1.9928438 9.40395425e-39 3 1489
3.6440579 0.0000000 -2.0176924 9.40395425e-39 3 1489
3.6253269 0.0000000 -2.0427888 9.40395425e-39 3 1489
3.6069268 0.0000000 -2.0681288 9.40395425e-39 3 1489
3.5888606 0.0000000 -2.0937080 9.40395425e-39 3 1489
3.5711316 0.0000000 -2.1195219 9.40395425e-39 3 1489
3.5537426 0.0000000 -2.1455661 9.40395425e-39 3 1489
3.5366967 0.0000000 -2.1718362 9.40395425e-39 3 1489
3.5199969 0.0000000 -2.1983277 9.40395425e-39 3 1489
3.5036460 0.0000000 -2.2250359 9.40395425e-39 3 1489
3.4876469 0.0000000 -2.2519563 9.40395425e-39 3 1489
3.4720022 0.0000000 -2.2790842 9.40395425e-39 3 1489
3.4567148 0.0000000 -2.3064150 9.40395425e-39 3 1489
3.4417871 0.0000000 -2.3339440 9.40395425e-39 3 1489
3.4272218 0.0000000 -2.3616664 9.40395425e-39 3 1489
3.4130214 0.0000000 -2.3895775 9.40395425e-39 3 1489
3.3991884 0.0000000 -2.4176724 9.40395425e-39 3 1489
3.3857250 0.0000000 -2.4459464 9.40395425e-39 3 1489
3.3726337 0.0000000 -2.4743945 9.40395425e-39 3 1489
3.3599166 0.0000000 -2.5030119 9.40395425e-39 3 1489
3.3475760 0.0000000 -2.5317937 9.40395425e-39 3 1489
3.3356140 0.0000000 -2.5607348 9.40395425e-39 3 1489
3.3240327 0.0000000 -2.5898304 9.40395425e-39 3 1489
3.3128340 0.0000000 -2.6190754 9.40395425e-39 3 1489
3.3020198 0.0000000 -2.6484647 9.40395425e-39 3 1489
3.2915921 0.0000000 -2.6779934 9.40395425e-39 3 1489
3.2815526 0.0000000 -2.7076563 9.40395425e-39 3 1489
3.2719031 0.0000000 -2.7374484 9.40395425e-39 3 1489
3.2626451 0.0000000 -2.7673644 9.40395425e-39 3 1489
3.2537804 0.0000000 -2.7973993 9.40395425e-39 3 1489
3.2453104 0.0000000 -2.8275479 9.40395425e-39 3 1489
3.2372366 0.0000000 -2.8578051 9.40395425e-39 3 1489
3.2295603 0.0000000 -2.8881655 9.40395425e-39 3 1489
3.2222830 0.0000000 -2.9186240 9.40395425e-39 3 1489
3.2154058 0.0000000 -2.9491753 9.40395425e-39 3 1489
3.2089299 0.0000000 -2.9798142 9.40395425e-39 3 1489
3.2028565 0.0000000 -3.0105354 9.40395425e-39 3 1489
3.1971866 0.0000000 -3.0413337 9.40395425e-39 3 1489
3.1919211 0.0000000 -3.0722036 9.40395425e-39 3 1489
3.1870610 0.0000000 -3.1031400 9.40395425e-39 3 1489
3.1826071 0.0000000 -3.1341375 9.40395425e-39 3 1489
3.1785602 0.0000000 -3.1651907 9.40395425e-39 3 1489
3.1749210 0.0000000 -3.1962943 9.40395425e-39 3 1489
3.1716900 0.0000000 -3.2274430 9.40395425e-39 3 1489
3.1688679 0.0000000 -3.2586314 9.40395425e-39 3 1489
3.1664552 0.0000000 -3.2898541 9.40395425e-39 3 1489
3.1644522 0.0000000 -3.3211058 9.40395425e-39 3 1489
3.1628593 0.0000000 -3.3523810 9.40395425e-39 3 1489
3.1616767 0.0000000 -3.3836745 9.40395425e-39 3 1489
3.1609048 0.0000000 -3.4149808 9.40395425e-39 3 1489
3.1605435 0.0000000 -3.4462945 9.40395425e-39 3 1489
3.1605931 0.0000000 -3.4776103 9.40395425e-39 3 1489
3.1610534 0.0000000 -3.5089227 9.40395425e-39 3 1489
3.1619243 0.0000000 -3.5402264 9.40395425e-39 3 1489
3.1632058 0.0000000 -3.5715160 9.40395425e-39 3 1489
3.1648977 0.0000000 -3.6027860 9.40395425e-39 3 1489
3.1669995 0.0000000 -3.6340312 9.40395425e-39 3 1489
3.1695110 0.0000000 -3.6652462 9.40395425e-39 3 1489
3.1724317 0.0000000 -3.6964255 9.40395425e-39 3 1489
3.1757612 0.0000000 -3.7275638 9.40395425e-39 3 1489
3.1794988 0.0000000 -3.7586557 9.40395425e-39 3 1489
3.1836439 0.0000000 -3.7896960 9.40395425e-39 3 1489
3.1881958 0.0000000 -3.8206792 9.40395425e-39 3 1489
3.1931537 0.0000000 -3.8516001 9.40395425e-39 3 1489
3.1985168 0.0000000 -3.8824532 9.40395425e-39 3 1489
3.2042841 0.0000000 -3.9132334 9.40395425e-39 3 1489
3.2104547 0.0000000 -3.9439352 9.40395425e-39 3 1489
3.2170274 0.0000000 -3.9745535 9.40395425e-39 3 1489
3.2240012 0.0000000 -4.0050829 9.40395425e-39 3 1489
3.3337632 0.0441992 -4.0100002 2.11127992e-38 5 1472
3.4513534 0.0919139 -4.0100002 2.11127992e-38 5 1472
3.5577787 0.1349494 -4.0100002 2.11127992e-38 5 1472
3.6545891 0.1739548 -4.0100002 2.11127992e-38 5 1472
3.7430603 0.2094642 -4.0100002 2.11127992e-38 5 1472
3.8000000 0.2312552 -4.0177645 2.11127992e-38 5 1473
3.8000000 0.2279466 -4.0431503 2.11127992e-38 5 1473
3.8000000 0.2244754 -4.0687599 2.11127992e-38 5 1473
3.8000000 0.2208383 -4.0946053 2.11127992e-38 5 1473
3.8000000 0.2170314 -4.1206988 2.11127992e-38 5 1473
3.8000000 0.2130512 -4.1470531 2.11127992e-38 5 1473
3.8000000 0.2088934 -4.1736813 2.11127992e-38 5 1473
3.8000000 0.2045539 -4.2005970 2.11127992e-38 5 1473
3.8000000 0.2000281 -4.2278144 2.11127992e-38 5 1473
3.3757562 0.0000000 -4.4488346 9.40395425e-39 3 1489
3.3889375 0.0000000 -4.4772412 9.40395425e-39 3 1489
3.4024902 0.0000000 -4.5054724 9.40395425e-39 3 1489
3.4164121 0.0000000 -4.5335235 9.40395425e-39 3 1489
3.4307007 0.0000000 -4.5613895 9.40395425e-39 3 1489
3.4453536 0.0000000 -4.5890657 9.40395425e-39 3 1489
3.4603682 0.0000000 -4.6165473 9.40395425e-39 3 1489
3.4757421 0.0000000 -4.6438296 9.40395425e-39 3 1489
3.4914725 0.0000000 -4.6709079 9.40395425e-39 3 1489
3.5075567 0.0000000 -4.6977776 9.40395425e-39 3 1489
3.5239919 0.0000000 -4.7244339 9.40395425e-39 3 1489
3.5407755 0.0000000 -4.7508724 9.40395425e-39 3 1489
3.5579043 0.0000000 -4.7770885 9.40395425e-39 3 1489
3.5753756 0.0000000 -4.8030776 9.40395425e-39 3 1489
3.5931862 0.0000000 -4.8288353 9.40395425e-39 3 1489
3.6113332 0.0000000 -4.8543572 9.40395425e-39 3 1489
3.6298134 0.0000000 -4.8796389 9.40395425e-39 3 1489
3.6486236 0.0000000 -4.9046759 9.40395425e-39 3 1489
3.6677606 0.0000000 -4.9294641 9.40395425e-39 3 1489
3.6872211 0.0000000 -4.9539992 9.40395425e-39 3 1489
3.7070018 0.0000000 -4.9782768 9.40395425e-39 3 1489
3.7270992 0.0000000 -5.0022930 9.40395425e-39 3 1489
3.7475099 0.0000000 -5.0260434 9.40395425e-39 3 1489
3.7682304 0.0000000 -5.0495241 9.40395425e-39 3 1489
3.7892570 0.0000000 -5.0727309 9.40395425e-39 3 1489
3.8105863 0.0000000 -5.0956600 9.40395425e-39 3 1489
3.8322145 0.0000000 -5.1183073 9.40395425e-39 3 1489
3.8541379 0.0000000 -5.1406690 9.40395425e-39 3 1489
3.8763528 0.0000000 -5.1627411 9.40395425e-39 3 1489
3.8988552 0.0000000 -5.1845200 9.40395425e-39 3 1489
3.9216414 0.0000000 -5.2060019 9.40395425e-39 3 1489
3.9447074 0.0000000 -5.2271830 9.40395425e-39 3 1489
3.9680492 0.0000000 -5.2480597 9.40395425e-39 3 1489
3.9916629 0.0000000 -5.2686285 9.40395425e-39 3 1489
4.0155443 0.0000000 -5.2888858 9.40395425e-39 3 1489
4.0396894 0.0000000 -5.3088280 9.40395425e-39 3 1489
4.0640940 0.0000000 -5.3284519 9.40395425e-39 3 1489
4.0887539 0.0000000 -5.3477539 9.40395425e-39 3 1489
4.1136649 0.0000000 -5.3667308 9.40395425e-39 3 1489
4.1388226 0.0000000 -5.3853794 9.40395425e-39 3 1489
4.1642228 0.0000000 -5.4036963 9.40395425e-39 3 1489
4.1898610 0.0000000 -5.4216785 9.40395425e-39 3 1489
4.2157330 0.0000000 -5.4393228 9.40395425e-39 3 1489
4.2418341 0.0000000 -5.4566263 9.40395425e-39 3 1489
4.2681600 0.0000000 -5.4735859 9.40395425e-39 3 1489
4.2947060 0.0000000 -5.4901988 9.40395425e-39 3 1489
4.3214677 0.0000000 -5.5064620 9.40395425e-39 3 1489
4.3484404 0.0000000 -5.5223727 9.40395425e-39 3 1489
4.3756195 0.0000000 -5.5379284 9.40395425e-39 3 1489
4.4030003 0.0000000 -5.5531261 9.40395425e-39 3 1489
4.4305781 0.0000000 -5.5679634 9.40395425e-39 3 1489
4.4583481 0.0000000 -5.5824377 9.40395425e-39 3 1489
4.4863056 0.0000000 -5.5965465 9.40395425e-39 3 1489
4.5144458 0.0000000 -5.6102874 9.40395425e-39 3 1489
4.5427637 0.0000000 -5.6236579 9.40395425e-39 3 1489
4.5712546 0.0000000 -5.6366559 9.40395425e-39 3 1489
4.5999136 0.0000000 -5.6492791 9.40395425e-39 3 1489
4.6287357 0.0000000 -5.6615252 9.40395425e-39 3 1489
4.6577159 0.0000000 -5.6733922 9.40395425e-39 3 1489
4.6868493 0.0000000 -5.6848781 9.40395425e-39 3 1489
4.7161308 0.0000000 -5.6959809 9.40395425e-39 3 1489
4.7455555 0.0000000 -5.7066986 9.40395425e-39 3 1489
4.7751182 0.0000000 -5.7170294 9.40395425e-39 3 1489
4.8048139 0.0000000 -5.7269716 9.40395425e-39 3 1489
4.8346374 0.0000000 -5.7365233 9.40395425e-39 3 1489
4.8645836 0.0000000 -5.7456831 9.40395425e-39 3 1489
4.8959132 0.0019376 -5.7500000 2.11127992e-38 5 8
4.9282898 0.0055629 -5.7500000 2.11127992e-38 5 8
4.9604375 0.0089920 -5.7500000 2.11127992e-38 5 8
4.9923697 0.0122281 -5.7500000 2.11127992e-38 5 8
5.0240995 0.0152743 -5.7500000 2.11127992e-38 5 8
5.0465485 0.0000000 -5.7923260 9.40395425e-39 3 1489
5.0772084 0.0000000 -5.7987014 9.40395425e-39 3 1489
5.1079494 0.0000000 -5.8046740 9.40395425e-39 3 1489
5.1387661 0.0000000 -5.8102429 9.40395425e-39 3 1489
5.1696531 0.0000000 -5.8154071 9.40395425e-39 3 1489
5.2006053 0.0000000 -5.8201657 9.40395425e-39 3 1489
5.2316172 0.0000000 -5.8245179 9.40395425e-39 3 1489
5.2626835 0.0000000 -5.8284630 9.40395425e-39 3 1489
5.2937989 0.0000000 -5.8320002 9.40395425e-39 3 1489
5.3249580 0.0000000 -5.8351290 9.40395425e-39 3 1489
5.3561555 0.0000000 -5.8378488 9.40395425e-39 3 1489
5.3873859 0.0000000 -5.8401591 9.40395425e-39 3 1489
5.4186440 0.0000000 -5.8420597 9.40395425e-39 3 1489
5.4499243 0.0000000 -5.8435500 9.40395425e-39 3 1489
5.4812215 0.0000000 -5.8446299 9.40395425e-39 3 1489
5.5125302 0.0000000 -5.8452992 9.40395425e-39 3 1489
5.5438449 0.0000000 -5.8455577 9.40395425e-39 3 1489
5.5751603 0.0000000 -5.8454055 9.40395425e-39 3 1489
5.6064711 0.0000000 -5.8448425 9.40395425e-39 3 1489
5.6377718 0.0000000 -5.8438689 9.40395425e-39 3 1489
5.6690570 0.0000000 -5.8424848 9.40395425e-39 3 1489
5.7003213 0.0000000 -5.8406905 9.40395425e-39 3 1489
5.7315594 0.0000000 -5.8384862 9.40395425e-39 3 1489
5.7627660 0.0000000 -5.8358723 9.40395425e-39 3 1489
5.7939355 0.0000000 -5.8328494 9.40395425e-39 3 1489
5.8250628 0.0000000 -5.8294178 9.40395425e-39 3 1489
5.8561423 0.0000000 -5.8255783 9.40395425e-39 3 1489
5.8871688 0.0000000 -5.8213314 9.40395425e-39 3 1489
5.9181369 0.0000000 -5.8166779 9.40395425e-39 3 1489
5.9490413 0.0000000 -5.8116186 9.40395425e-39 3 1489
5.9798767 0.0000000 -5.8061544 9.40395425e-39 3 1489
6.0106378 0.0000000 -5.8002862 9.40395425e-39 3 1489
6.0413193 0.0000000 -5.7940150 9.40395425e-39 3 1489
6.0635146 0.0160323 -5.7500000 2.11127992e-38 5 8
6.0951941 0.0130348 -5.7500000 2.11127992e-38 5 8
6.1270727 0.0098481 -5.7500000 2.11127992e-38 5 8
6.1591634 0.0064692 -5.7500000 2.11127992e-38 5 8
6.1914794 0.0028951 -5.7500000 2.11127992e-38 5 8
6.2234414 0.0000000 -5.7479902 9.40395425e-39 3 1489
6.2534186 0.0000000 -5.7389322 9.40395425e-39 3 1489
6.1949973 0.0000000 -5.5500720 9.40395425e-39 3 1489
6.2223808 0.0000000 -5.5414041 9.40395425e-39 3 1489
6.2496483 0.0000000 -5.5323777 9.40395425e-39 3 1489
6.2767951 0.0000000 -5.5229945 9.40395425e-39 3 1489
6.3038164 0.0000000 -5.5132559 9.40395425e-39 3 1489
6.3307077 0.0000000 -5.5031638 9.40395425e-39 3 1489
6.3574643 0.0000000 -5.4927198 9.40395425e-39 3 1489
6.3840816 0.0000000 -5.4819258 9.40395425e-39 3 1489
6.4105550 0.0000000 -5.4707835 9.40395425e-39 3 1489
6.4368800 0.0000000 -5.4592950 9.40395425e-39 3 1489
6.4630520 0.0000000 -5.4474621 9.40395425e-39 3 1489
6.4890666 0.0000000 -5.4352870 9.40395425e-39 3 1489
6.5149192 0.0000000 -5.4227717 9.40395425e-39 3 1489
6.5406055 0.0000000 -5.4099183 9.40395425e-39 3 1489
