ply
format ascii 1.0
element vertex 702
property float x
property float y
property float z
property float nx
property float ny
property float nz
property uchar diffuse_red
property uchar diffuse_green
property uchar diffuse_blue
end_header
-0.56823 -0.129765 -2.56836 0.351067 -0.24395 0.904014 213 91 134
-0.552057 -0.130501 -2.57302 0.213605 -0.0403241 0.976088 164 144 169
-0.537143 -0.129606 -2.58216 0.467231 -0.0927409 0.879258 71 167 188
-0.52231 -0.128035 -2.59114 0.448156 -0.231687 0.86341 56 154 189
-0.505895 -0.128868 -2.60122 0.381372 -0.269973 0.884121 116 169 190
-0.488708 -0.133879 -2.60861 0.497863 -0.332787 0.800865 193 110 137
-0.472441 -0.133416 -2.61848 0.457067 -0.379128 0.804582 175 76 114
-0.453002 -0.130068 -2.62778 0.52837 -0.460438 0.713318 193 130 158
-0.435989 -0.130523 -2.62988 -0.0360086 0.50787 0.860681 150 166 175
-0.396312 -0.117336 -2.64299 0.0265757 0.34622 0.937777 145 172 192
-0.384895 -0.133941 -2.63208 0.110531 0.65611 0.746527 188 186 185
-0.361277 -0.115849 -2.66358 0.421349 -0.227783 0.877827 140 139 159
-0.336202 -0.116179 -2.66711 0.518308 0.191136 0.833561 177 179 189
-0.295223 -0.129892 -2.65006 0.176377 0.642408 0.74579 151 148 148
-0.277313 -0.133011 -2.63745 0.452014 -0.352008 0.819618 113 121 118
-0.260179 -0.131103 -2.6496 0.145736 0.595058 0.790359 83 97 90
-0.248875 -0.14722 -2.64735 0.395491 -0.581183 0.711206 70 90 74
-0.242645 -0.140322 -2.65835 0.331511 -0.247753 0.91034 73 88 73
-0.225804 -0.140346 -2.66499 0.367789 -0.12231 0.92183 80 96 82
-0.202901 -0.136589 -2.67162 0.37755 -0.242971 0.893544 78 100 82
-0.185485 -0.136576 -2.67863 0.399086 -0.283858 0.871869 83 106 85
-0.164093 -0.127964 -2.68791 0.418707 -0.260624 0.869919 87 120 95
-0.146762 -0.127957 -2.69668 0.440466 -0.286333 0.850884 81 116 92
-0.129356 -0.127939 -2.7035 0.406294 -0.31413 0.858049 79 116 90
-0.113342 -0.127224 -2.71449 0.380616 -0.12274 0.916552 78 109 89
-0.0960573 -0.127219 -2.72152 0.370024 -0.116137 0.921735 70 92 80
-0.0786524 -0.127186 -2.72751 0.375516 -0.213664 0.901851 67 82 74
-0.0608019 -0.127124 -2.73309 0.380974 -0.35468 0.85385 68 77 70
-0.0428942 -0.127122 -2.74101 0.373144 -0.369312 0.851101 64 71 63
-0.0248816 -0.127096 -2.74811 0.11895 -0.0440437 0.991923 73 79 68
0.00653302 -0.132692 -2.74665 -0.512884 0.459576 0.725079 75 71 48
0.024221 -0.133253 -2.72148 -0.808988 0.174478 0.561334 36 33 16
0.0567023 -0.151349 -2.6793 -0.743973 0.0322399 0.667431 53 62 30
0.067034 -0.165046 -2.67147 -0.673474 0.165734 0.720393 49 51 22
0.0971083 -0.170198 -2.63491 -0.733382 0.388779 0.557675 53 75 33
0.12696 -0.179785 -2.61579 -0.510851 0.154881 0.845602 63 90 41
0.13548 -0.193615 -2.61578 -0.445839 -0.0261167 0.894732 49 61 24
0.151477 -0.194495 -2.60479 -0.676918 -0.270574 0.684523 56 74 31
0.165682 -0.20056 -2.58847 -0.689364 -0.297413 0.660548 68 92 42
0.180376 -0.205296 -2.57522 -0.715298 -0.163876 0.679334 77 115 53
0.195437 -0.211133 -2.56686 -0.634446 -0.118272 0.763865 102 152 76
0.216896 -0.204845 -2.5648 -0.0850771 0.274231 0.957893 130 200 105
0.241124 -0.219003 -2.55308 -0.231177 0.44522 0.865065 126 192 101
0.259003 -0.219203 -2.55121 -0.0574791 0.44372 0.89432 124 192 99
0.291008 -0.224834 -2.55113 0.126703 0.0292786 0.991508 125 196 100
0.308365 -0.226256 -2.54861 0.180443 0.0643039 0.981481 133 203 106
0.324249 -0.225081 -2.55458 0.117143 0.0456675 0.992064 121 192 96
0.339828 -0.224317 -2.56061 0.18025 -0.109269 0.977533 134 200 107
0.324968 -0.225227 -2.55526 0.150829 -0.0209497 0.988338 121 193 96
0.376109 -0.227064 -2.57113 0.199574 0.119324 0.97259 84 129 60
0.389943 -0.225484 -2.58061 0.485513 0.232676 0.842697 91 140 67
0.411667 -0.210901 -2.60254 0.579806 -0.369405 0.726199 117 168 89
0.426612 -0.210858 -2.60676 0.562629 -0.234558 0.792737 80 120 62
0.589408 -0.0950486 -3.01132 -0.925625 0.051336 0.374945 19 26 14
0.599343 -0.111171 -2.9824 -0.866304 0.0320908 0.498485 27 43 20
0.620737 -0.126463 -2.94232 -0.916095 -0.023708 0.400259 76 134 66
0.784443 -0.0832779 -3.10077 -0.155288 -0.459242 0.874632 141 147 132
0.801575 -0.0832151 -3.09079 -0.319463 -0.275396 0.906698 187 194 185
0.813267 -0.0991265 -3.0978 -0.491545 -0.192402 0.849332 191 196 186
0.839052 -0.0940196 -3.08883 -0.0798848 -0.294786 0.952219 198 204 197
0.857389 -0.0932105 -3.08775 -0.0594579 -0.300557 0.951909 197 202 195
0.873644 -0.0915844 -3.08887 -0.0420417 -0.370287 0.927966 176 181 173
0.88354 -0.106779 -3.09441 0.00963688 -0.318571 0.94785 192 197 190
0.866663 -0.108236 -3.09262 0.0399253 -0.242441 0.969344 200 206 199
0.89291 -0.0918873 -3.0879 0.0085521 -0.433391 0.901165 169 173 165
0.901784 -0.106203 -3.09681 0.0414156 -0.435601 0.899187 182 187 181
0.920406 -0.105898 -3.09886 0.0920162 -0.45153 0.887499 192 196 190
-0.737068 -0.153357 -2.50749 0.201385 -0.26619 0.942649 26 19 19
-0.720848 -0.153345 -2.5101 0.310522 -0.2986 0.902449 40 32 40
-0.719829 -0.153607 -2.50729 0.418443 -0.263723 0.869112 40 33 41
-0.705797 -0.152449 -2.51466 0.192881 -0.314037 0.929612 174 108 131
-0.692495 -0.149032 -2.52042 0.259105 -0.361067 0.895821 191 77 111
-0.665467 -0.157496 -2.5294 0.581649 -0.24435 0.775872 200 100 140
-0.650097 -0.157169 -2.53763 0.346388 -0.311327 0.884924 108 161 180
-0.634831 -0.157265 -2.54585 0.420336 -0.273832 0.865063 67 168 195
-0.619233 -0.157382 -2.55248 0.434702 -0.210555 0.875614 66 170 196
-0.603377 -0.157395 -2.56029 0.361118 -0.212306 0.908031 144 147 169
-0.587626 -0.157458 -2.56802 0.325751 -0.210745 0.921669 206 98 130
-0.563066 -0.14376 -2.57744 0.386764 -0.261263 0.884395 209 97 138
-0.547675 -0.142822 -2.58444 0.451481 -0.267837 0.851134 124 160 179
-0.540279 -0.157642 -2.58481 0.232668 0.180815 0.9556 134 163 179
-0.524753 -0.149818 -2.59927 0.535861 -0.447076 0.716223 75 135 156
-0.532799 -0.143123 -2.59444 0.39934 -0.246831 0.882951 54 144 168
-0.509788 -0.148441 -2.60452 0.382791 -0.312773 0.869278 118 161 179
-0.461444 -0.152551 -2.61337 0.200888 0.356145 0.912581 117 173 186
-0.435174 -0.147766 -2.61542 0.118033 0.63606 0.762558 197 166 174
-0.42006 -0.164072 -2.59841 -0.0894111 0.452738 0.887149 165 170 157
-0.403087 -0.163935 -2.60438 0.211524 -0.0732525 0.974624 121 147 126
-0.374973 -0.160532 -2.61227 -0.136168 -0.356357 0.924374 98 131 108
-0.346844 -0.167919 -2.60982 0.483323 -0.582289 0.653711 76 102 79
-0.336898 -0.150869 -2.61471 0.368873 -0.298888 0.880113 103 120 111
-0.320392 -0.151238 -2.62199 0.490281 -0.408268 0.770027 78 93 82
-0.303709 -0.150106 -2.63178 0.45576 0.288482 0.842058 60 78 65
-0.28693 -0.149098 -2.64075 0.337319 0.0323158 0.940836 65 80 68
-0.286724 -0.146 -2.64443 0.451407 -0.367255 0.813238 64 79 67
-0.278565 -0.161846 -2.64967 0.0437755 -0.32355 0.945198 69 84 69
-0.269751 -0.146868 -2.64829 0.349928 -0.185738 0.918178 66 83 69
-0.261573 -0.162562 -2.64825 0.414022 -0.496984 0.762622 61 76 62
-0.244634 -0.160804 -2.6633 0.511914 -0.206173 0.833929 63 78 65
-0.227951 -0.157179 -2.67213 0.52962 -0.0668935 0.845593 68 81 68
-0.213005 -0.151767 -2.67367 0.407569 -0.23016 0.883694 74 87 74
-0.190667 -0.143285 -2.6823 0.439785 -0.320209 0.83908 74 91 75
-0.173543 -0.143273 -2.68939 0.295263 -0.25947 0.919508 77 96 79
-0.156741 -0.145853 -2.69774 0.355833 -0.288356 0.888951 82 96 83
-0.139377 -0.144103 -2.70502 0.382769 -0.176814 0.906766 93 110 98
-0.1221 -0.144153 -2.71357 0.315753 -0.187405 0.93015 73 89 79
-0.104499 -0.144146 -2.71958 0.37145 -0.264201 0.890069 74 85 74
-0.105424 -0.143291 -2.71973 0.340358 -0.228031 0.912227 72 84 74
-0.0867746 -0.143881 -2.72806 0.400039 -0.184331 0.89777 86 91 78
-0.069075 -0.143817 -2.7343 0.329783 -0.265193 0.906044 113 114 97
-0.050986 -0.143872 -2.74228 0.315449 -0.456535 0.831906 158 152 130
-0.0434173 -0.15811 -2.73206 0.0520027 0.643159 0.763965 214 195 156
-0.0324057 -0.143742 -2.74599 0.241938 0.33623 0.910173 192 182 153
-0.0137971 -0.143495 -2.74463 -0.142244 0.665701 0.732536 204 193 159
0.00645231 -0.150197 -2.73304 -0.389887 0.621382 0.679612 184 167 125
0.0268896 -0.153693 -2.71556 -0.603038 0.440371 0.665146 67 51 27
0.0494732 -0.173051 -2.6856 -0.671851 0.175226 0.719661 109 95 71
0.0817659 -0.180368 -2.64774 -0.742232 0.334382 0.580758 54 58 29
0.0927268 -0.205432 -2.62266 0.279528 -0.485922 0.828097 192 147 137
0.110151 -0.20514 -2.62924 0.311841 -0.33783 0.888046 140 87 72
0.104646 -0.191288 -2.62502 -0.382247 0.158089 0.910437 60 63 33
0.123404 -0.208336 -2.6242 -0.108648 -0.327181 0.938695 55 56 25
0.117865 -0.19467 -2.61958 -0.380757 0.169556 0.908997 52 60 27
0.146358 -0.20533 -2.62569 -0.729003 0.220687 0.64796 44 52 16
0.185994 -0.223767 -2.58039 -0.729908 -0.123356 0.672323 57 79 29
0.207292 -0.233938 -2.57024 -0.804319 -0.223044 0.550748 86 124 59
0.230228 -0.23287 -2.54379 -0.688055 -0.183998 0.701944 128 189 103
0.248191 -0.233278 -2.5445 -0.247906 0.309061 0.918164 130 199 103
0.255373 -0.247606 -2.53755 -0.0770554 0.37615 0.923349 133 204 107
0.265209 -0.233558 -2.54368 0.25651 0.191966 0.947286 126 197 100
0.271989 -0.246041 -2.54249 0.213972 0.3083 0.926913 133 205 106
0.282128 -0.233555 -2.54822 0.257787 0.218555 0.941159 121 192 96
0.289195 -0.245964 -2.54678 0.258309 0.117015 0.958949 125 198 100
0.316407 -0.239948 -2.55478 0.110163 0.0863709 0.990154 127 200 103
0.306054 -0.245846 -2.55182 0.130515 0.0517368 0.990096 123 194 99
0.333689 -0.239944 -2.55482 0.115065 0.0777242 0.990313 113 184 88
0.365892 -0.253805 -2.56022 0.396634 0.122728 0.909736 134 198 110
0.383552 -0.253226 -2.56703 0.323719 0.246715 0.913421 87 128 62
0.383842 -0.253564 -2.56461 0.378447 0.129583 0.916508 95 139 69
0.383268 -0.252792 -2.56605 0.364565 0.243909 0.898666 86 128 62
0.385501 -0.24234 -2.57034 0.0472751 0.14914 0.987685 68 107 48
0.403026 -0.251544 -2.57359 0.319315 0.152671 0.93527 55 79 32
0.437121 -0.234922 -2.60506 0.236463 0.208149 0.949083 54 86 37
0.607539 -0.160636 -2.91452 -0.645236 0.464883 0.606263 33 62 25
0.794721 -0.0990595 -3.10104 -0.454431 -0.443443 0.772561 149 153 138
0.839165 -0.124476 -3.09765 -0.126788 -0.318888 0.939274 185 193 184
0.829603 -0.108781 -3.09617 -0.128881 -0.359416 0.924235 183 190 182
0.848443 -0.109095 -3.09322 -0.0218146 -0.234219 0.971939 198 205 198
0.857867 -0.124709 -3.09632 0.0310732 -0.183363 0.982554 194 201 193
0.875688 -0.123577 -3.09641 0.0868162 -0.1191 0.989079 200 206 198
0.893849 -0.122585 -3.09731 0.0228181 -0.124915 0.991905 199 204 198
0.910536 -0.120659 -3.10576 -0.107765 -0.576165 0.810198 193 197 191
0.94273 -0.11776 -3.12787 0.285708 -0.468888 0.835772 193 193 188
1.0021 -0.112997 -3.14095 -0.6399 -0.187453 0.745245 56 47 49
-0.742863 -0.166606 -2.49986 0.123554 0.660907 0.740227 17 17 14
-0.72827 -0.166848 -2.50797 0.414715 -0.290612 0.862297 26 20 21
-0.713496 -0.167599 -2.51518 0.487159 -0.257382 0.834524 78 59 72
-0.698478 -0.166076 -2.52037 0.218046 -0.312537 0.924541 184 91 118
-0.683275 -0.165599 -2.52586 0.20535 -0.319268 0.925148 198 80 116
-0.65984 -0.171814 -2.53768 0.431959 -0.252157 0.865926 178 119 152
-0.644349 -0.171808 -2.54572 0.450101 -0.260105 0.854257 89 170 184
-0.629225 -0.171832 -2.55286 0.436686 -0.252656 0.863406 69 169 190
-0.613159 -0.172106 -2.56018 0.443541 -0.272648 0.853777 100 168 182
-0.597522 -0.172251 -2.56765 0.327035 -0.298708 0.896561 167 144 165
-0.572502 -0.15922 -2.57528 0.594918 -0.508575 0.622434 210 91 134
-0.569682 -0.18024 -2.55938 -0.565796 -0.442355 0.695842 134 157 176
-0.555813 -0.161536 -2.57537 0.275654 0.558989 0.782014 193 121 151
-0.51748 -0.167891 -2.60101 0.652586 -0.203319 0.729927 191 112 136
-0.457782 -0.180687 -2.57185 -0.0300258 0.665749 0.745571 102 112 99
-0.425682 -0.179083 -2.58381 0.534108 -0.207525 0.81955 81 112 92
-0.410284 -0.178945 -2.58901 0.459759 -0.210835 0.862653 82 123 94
-0.39349 -0.178815 -2.59534 0.314921 -0.288832 0.904102 83 121 92
-0.37909 -0.179581 -2.59834 0.525379 -0.527893 0.667313 89 126 97
-0.364118 -0.179205 -2.60736 0.409688 -0.320147 0.854202 86 118 93
-0.330073 -0.166201 -2.62301 0.415281 -0.229304 0.880319 76 103 82
-0.339576 -0.182066 -2.6202 0.446021 -0.318366 0.836486 75 93 78
-0.313124 -0.165672 -2.63099 0.342919 -0.220574 0.913101 74 95 77
-0.322821 -0.181719 -2.62869 0.387012 -0.288163 0.87589 83 99 84
-0.29578 -0.165948 -2.63624 0.336843 -0.227025 0.913781 72 85 71
-0.306648 -0.180324 -2.63992 0.421113 0.00311302 0.907003 75 88 74
-0.287487 -0.179298 -2.64317 0.349883 -0.0972687 0.93173 74 86 74
-0.270304 -0.176429 -2.65297 0.428894 -0.173419 0.886553 73 84 73
-0.253735 -0.176534 -2.66312 0.376518 -0.0769582 0.923207 96 110 98
-0.236971 -0.176533 -2.66994 0.266644 -0.00202807 0.963793 130 143 132
-0.215324 -0.17017 -2.67599 0.432959 -0.366694 0.823458 108 119 108
-0.207629 -0.174939 -2.67791 0.33897 -0.0145102 0.940685 115 123 109
-0.191147 -0.175128 -2.68768 0.378444 0.145567 0.914107 137 143 125
-0.200848 -0.159528 -2.68715 0.437649 -0.00877749 0.899103 96 108 97
-0.17388 -0.17493 -2.6908 0.25519 0.275726 0.926743 162 163 143
-0.183272 -0.159331 -2.69023 0.392172 -0.147276 0.908026 120 133 121
-0.156532 -0.175029 -2.69757 0.292593 0.299803 0.908024 196 191 166
-0.166248 -0.159786 -2.6972 0.438455 -0.30449 0.845602 132 143 130
-0.139117 -0.175144 -2.70549 0.29391 0.163471 0.941751 202 191 158
-0.149261 -0.159775 -2.70566 0.392013 -0.193006 0.899486 119 126 112
-0.131886 -0.159956 -2.71349 0.323942 -0.326405 0.887987 145 148 131
-0.114351 -0.159879 -2.71977 0.262795 -0.238649 0.934872 159 156 133
-0.104852 -0.174424 -2.70471 0.126864 0.6056 0.785592 206 189 153
-0.0962048 -0.159714 -2.72115 0.150166 0.541365 0.827269 184 175 148
-0.0784795 -0.159765 -2.72339 0.0859104 0.658021 0.748083 200 189 156
-0.0606695 -0.159318 -2.7276 0.0802921 0.663156 0.744162 207 191 156
-0.0559268 -0.209847 -2.5817 0.133521 0.00829296 0.991011 207 192 163
-0.0158522 -0.196662 -2.63872 -0.0302224 0.404152 0.914192 209 191 159
-0.00284758 -0.178423 -2.71032 -0.378812 0.552433 0.742509 213 195 161
0.03184 -0.177683 -2.69859 -0.582423 0.363406 0.727131 205 188 157
0.040547 -0.193957 -2.68455 -0.61554 0.262669 0.743044 217 205 181
0.040547 -0.193957 -2.68455 -0.61554 0.262669 0.743044 217 205 181
0.0573791 -0.191053 -2.66602 -0.546378 0.414704 0.727662 210 197 182
0.0495304 -0.206203 -2.63596 -0.520046 -0.0036796 0.85413 212 201 195
0.0711173 -0.19884 -2.64844 -0.491818 0.474656 0.729943 161 158 147
0.0711251 -0.198851 -2.64839 -0.503816 0.463141 0.729157 161 158 147
0.0753245 -0.206279 -2.63966 -0.649084 0.485188 0.585903 175 175 160
0.0840678 -0.22001 -2.62364 0.011902 -0.0225173 0.999676 216 146 138
0.0995405 -0.217634 -2.63343 0.452522 -0.389835 0.80203 228 67 68
0.114438 -0.21813 -2.63965 0.499603 -0.409422 0.763394 128 47 26
0.131225 -0.221905 -2.63376 -0.485661 -0.181194 0.855162 50 69 28
0.234094 -0.100515 -3.00037 -0.237189 -0.176905 0.95522 75 113 50
0.253124 -0.11498 -2.9958 -0.19434 -0.399352 0.895963 95 145 70
0.220989 -0.24487 -2.54909 -0.772514 -0.359219 0.523626 78 120 48
0.235151 -0.251539 -2.54069 -0.768593 -0.304402 0.562676 106 157 80
0.263226 -0.260795 -2.53415 -0.28793 0.0463893 0.956527 136 205 109
0.281501 -0.260196 -2.54162 0.27053 0.208039 0.939965 134 207 107
0.282946 -0.270865 -2.52001 -0.381172 0.017254 0.924343 135 209 109
0.277699 -0.263911 -2.51612 -0.521378 -0.106616 0.846639 134 204 106
0.301983 -0.280154 -2.50495 -0.404621 0.00284758 0.91448 129 206 107
0.325617 -0.25412 -2.55158 0.139155 0.12032 0.982934 136 207 110
0.320319 -0.270906 -2.54538 0.170114 0.243133 0.95496 121 195 97
0.344371 -0.255565 -2.55295 0.410325 0.105719 0.905791 117 187 92
0.337162 -0.271374 -2.54832 0.245743 0.249557 0.93666 133 205 108
0.354712 -0.270753 -2.55412 0.245458 0.201972 0.948134 121 191 95
0.37368 -0.269481 -2.55992 0.238405 0.0362003 0.970491 133 199 107
0.37387 -0.269903 -2.56026 0.273921 0.00762045 0.961722 132 198 106
0.390971 -0.270075 -2.5619 0.127277 -0.075167 0.989015 127 185 100
0.420589 -0.27412 -2.56546 -0.00353878 0.220854 0.9753 62 98 42
0.409603 -0.268653 -2.56896 0.0888423 0.219647 0.971526 68 110 46
0.408215 -0.270547 -2.56449 -0.00674246 -0.125285 0.992098 77 113 51
0.406401 -0.270328 -2.56739 0.0838183 0.220703 0.971733 83 118 56
0.423401 -0.270781 -2.56816 -0.126832 0.187474 0.974047 54 83 37
0.435938 -0.277223 -2.5437 -0.697377 0.0824565 0.711945 52 71 40
0.603775 -0.143439 -3.01902 -0.873728 -0.00425042 0.486396 17 19 14
0.592048 -0.171801 -2.94104 -0.820739 0.194181 0.537291 16 16 14
0.64415 -0.198457 -2.84472 -0.00950031 0.599471 0.80034 121 193 100
0.804737 -0.122913 -3.11024 -0.395775 -0.405931 0.823761 140 142 130
0.820841 -0.12463 -3.09947 -0.429766 -0.445729 0.785256 170 175 164
0.81426 -0.139582 -3.11083 -0.610383 -0.4967 0.617026 144 147 136
0.816217 -0.139053 -3.10976 -0.491321 -0.462898 0.737787 151 154 144
0.830727 -0.139576 -3.10402 -0.347845 -0.416059 0.840178 176 181 171
0.847271 -0.138483 -3.09887 -0.0344068 -0.102748 0.994112 186 194 185
0.86611 -0.139275 -3.09816 0.0696307 -0.346093 0.935613 189 196 188
0.904013 -0.137093 -3.10616 0.217246 -0.0620461 0.974143 194 198 193
0.884929 -0.138822 -3.10034 0.0577866 -0.256542 0.964804 197 202 196
1.00885 -0.132777 -3.15343 -0.70953 -0.147502 0.689065 49 39 42
1.01626 -0.130744 -3.14459 -0.153868 -0.8138 0.560406 33 26 25
-0.743183 -0.179171 -2.52292 -0.0686788 0.00929552 0.997596 26 17 15
-0.726082 -0.180667 -2.52001 0.0900486 -0.337332 0.937069 27 24 25
-0.708024 -0.18221 -2.52324 0.263567 -0.303023 0.915811 124 82 101
-0.691802 -0.179465 -2.52726 0.237976 -0.325514 0.9151 188 76 107
-0.692238 -0.182139 -2.52808 0.252852 -0.327869 0.910257 188 78 109
-0.676849 -0.18182 -2.53368 0.41132 -0.30236 0.85988 208 85 125
-0.653811 -0.1864 -2.54475 0.450896 -0.25018 0.856798 162 148 164
-0.638358 -0.185179 -2.55218 0.375063 -0.357692 0.85521 138 144 165
-0.623146 -0.186353 -2.56118 0.44954 -0.329261 0.830362 172 114 152
-0.60788 -0.186345 -2.56879 0.344046 -0.424706 0.837411 181 127 153
-0.590661 -0.186584 -2.57397 0.147214 -0.464317 0.873348 105 162 176
-0.557046 -0.196437 -2.55973 -0.57786 -0.403017 0.709686 74 90 93
-0.543163 -0.186152 -2.57005 -0.219329 0.553521 0.803436 175 167 164
-0.513891 -0.198736 -2.55067 0.38643 -0.550308 0.740157 81 90 84
-0.49006 -0.19302 -2.56837 0.136864 0.602199 0.786527 71 77 67
-0.469108 -0.188599 -2.56813 0.099542 0.656081 0.748097 71 84 77
-0.449739 -0.194614 -2.57129 0.356319 -0.26457 0.896125 78 97 81
-0.434835 -0.192395 -2.57688 0.397996 -0.281789 0.873037 80 106 85
-0.418651 -0.192321 -2.58278 0.435417 -0.322967 0.8403 89 119 96
-0.402513 -0.19459 -2.59102 0.354213 -0.262941 0.897438 84 113 89
-0.402453 -0.194313 -2.591 0.353938 -0.268561 0.895881 85 114 89
-0.387384 -0.194701 -2.59839 0.435721 -0.317293 0.842302 77 103 81
-0.373544 -0.193664 -2.60687 0.423828 -0.278447 0.86188 74 98 80
-0.350596 -0.19728 -2.62119 0.384605 -0.217119 0.897184 110 124 116
-0.333571 -0.197609 -2.62875 0.378676 -0.210224 0.901338 97 110 102
-0.314819 -0.196967 -2.63277 0.2183 -0.22043 0.950661 142 158 146
-0.298879 -0.206862 -2.60866 -0.434872 0.570424 0.69678 131 140 127
-0.279448 -0.194873 -2.6471 0.425065 0.412759 0.805574 139 148 136
-0.262039 -0.191899 -2.6514 0.274848 0.31249 0.90929 112 121 107
-0.244383 -0.191508 -2.65625 0.201864 0.410657 0.889163 146 151 133
-0.225982 -0.191391 -2.65833 0.161743 0.47583 0.864537 164 164 142
-0.227512 -0.191293 -2.664 0.194027 0.388597 0.900748 166 165 144
-0.207164 -0.191397 -2.66196 0.204977 0.564616 0.799496 184 176 148
-0.190466 -0.185465 -2.67652 0.211948 0.642609 0.736296 185 179 153
-0.140286 -0.228746 -2.5705 -0.0337301 0.680361 0.7321 211 197 175
-0.122688 -0.228294 -2.56944 -0.00646583 0.592179 0.80578 208 187 167
-0.0863919 -0.239683 -2.57469 0.309884 0.280586 0.908429 153 111 86
-0.0725717 -0.238657 -2.58168 0.473181 0.29614 0.829699 192 172 157
-0.0645323 -0.225056 -2.57984 0.463854 0.0210434 0.885662 211 202 191
-0.0563774 -0.238005 -2.58889 0.410923 0.293627 0.863091 214 216 211
-0.0381414 -0.238419 -2.59033 0.303926 0.41681 0.856679 215 220 215
0.00571495 -0.221406 -2.65498 -0.170177 0.66986 0.722723 210 214 206
0.0264075 -0.224585 -2.61163 0.0975816 0.145288 0.984565 221 221 216
0.043292 -0.223725 -2.6191 -0.0782757 0.05139 0.995606 223 223 220
0.0515717 -0.238895 -2.62142 0.166406 -0.0924692 0.981712 217 223 218
0.0601629 -0.224348 -2.61996 -0.0204081 0.00978774 0.999744 219 221 217
0.059743 -0.223479 -2.62415 -0.110692 0.0709204 0.991321 218 220 215
0.0687662 -0.239181 -2.62333 0.109157 -0.0914574 0.989808 214 144 136
0.0864464 -0.239556 -2.62918 0.313782 -0.245013 0.917338 245 58 60
0.104564 -0.231742 -2.63932 0.486319 -0.271984 0.830372 223 45 40
0.119333 -0.233345 -2.64296 -0.0151382 -0.392916 0.91945 100 57 24
0.254921 -0.275549 -2.53588 -0.697893 -0.416197 0.582859 92 135 63
0.263802 -0.282745 -2.54354 -0.726811 -0.464119 0.5063 86 129 57
0.30181 -0.287103 -2.50549 -0.514559 -0.0890782 0.852815 135 207 108
0.346535 -0.286558 -2.5472 0.259874 0.211776 0.942134 131 203 105
0.325641 -0.290769 -2.52791 -0.102356 0.589591 0.80119 130 204 104
0.363959 -0.286397 -2.55303 0.286884 0.186772 0.939582 124 197 99
0.382672 -0.285464 -2.56026 0.217929 0.0677325 0.973611 126 195 100
0.399511 -0.28591 -2.56229 0.203158 0.00583738 0.979129 138 201 110
0.39428 -0.290398 -2.56372 0.145957 0.0729491 0.986598 134 201 107
0.410607 -0.291365 -2.56111 0.0449167 -0.104571 0.993503 126 182 98
0.412762 -0.287696 -2.56231 0.131276 -0.0917834 0.987088 110 160 83
0.403514 -0.274956 -2.56438 0.300426 0.171383 0.938281 106 153 78
0.404113 -0.283118 -2.56551 0.330494 -0.723095 0.606554 134 186 102
0.427886 -0.290218 -2.55968 -0.31626 -0.156236 0.935719 66 101 46
0.444104 -0.29014 -2.55449 -0.384009 0.075275 0.920256 41 65 30
0.599006 -0.187985 -2.9023 -0.650307 0.462765 0.602453 18 26 15
0.60388 -0.205497 -2.88179 -0.75796 0.327841 0.563931 26 43 22
0.625157 -0.207816 -2.84152 -0.443771 0.603263 0.662677 94 161 76
0.64482 -0.216783 -2.835 0.0527149 0.616627 0.785489 125 195 104
0.624256 -0.225488 -2.82668 -0.576193 0.54111 0.612537 93 154 76
0.64449 -0.234846 -2.81885 0.0355127 0.649865 0.75922 125 196 105
0.824941 -0.153285 -3.11374 -0.442339 -0.457464 0.771404 149 151 141
0.841431 -0.154444 -3.10556 -0.320509 -0.392455 0.862121 181 188 179
0.858955 -0.154094 -3.10031 0.0244914 -0.160304 0.986764 186 194 186
0.876819 -0.153559 -3.10297 0.0612026 -0.29251 0.954302 189 195 188
0.886346 -0.168299 -3.10776 0.155887 -0.318291 0.935088 189 195 189
0.885917 -0.168125 -3.10792 0.150935 -0.313281 0.937589 189 195 188
0.895551 -0.15328 -3.10712 0.300274 -0.202467 0.932117 192 194 186
0.913571 -0.15344 -3.11225 0.223829 -0.0491622 0.973388 192 196 190
0.904585 -0.169097 -3.11433 0.235739 -0.240221 0.941659 197 199 192
0.92329 -0.168799 -3.11992 0.0731842 0.0461911 0.996248 194 198 192
0.977766 -0.14648 -3.16004 0.217361 -0.227722 0.949156 191 188 188
1.01405 -0.154924 -3.15624 -0.417135 -0.260169 0.87081 48 38 39
-0.725732 -0.209177 -2.52527 0.318942 -0.262492 0.9107 29 21 21
-0.733799 -0.196027 -2.51807 0.457421 -0.292004 0.83994 27 20 17
-0.717344 -0.195795 -2.52544 0.242476 -0.319919 0.915892 40 32 37
-0.701274 -0.195875 -2.52972 0.249544 -0.329406 0.910615 160 120 139
-0.685699 -0.195598 -2.5352 0.291518 -0.304255 0.906888 145 94 129
-0.67041 -0.196281 -2.54168 0.357183 -0.299215 0.884811 145 143 168
-0.64789 -0.199098 -2.55232 0.431023 -0.303294 0.849842 174 125 147
-0.647772 -0.198614 -2.55184 0.443943 -0.297027 0.845393 174 126 147
-0.632399 -0.198541 -2.55872 0.398686 -0.271945 0.87584 210 85 126
-0.61727 -0.200822 -2.56775 0.426348 -0.28425 0.858737 209 93 127
-0.602075 -0.200891 -2.57669 0.250052 -0.394632 0.88416 166 118 141
-0.574174 -0.19686 -2.5707 -0.506476 -0.39331 0.767326 55 104 117
-0.585852 -0.200856 -2.58143 0.134942 -0.367599 0.920142 54 98 108
-0.541697 -0.210799 -2.55687 -0.37584 -0.63372 0.676124 42 58 47
-0.524615 -0.212341 -2.55083 0.090808 -0.472247 0.876776 68 85 74
-0.505156 -0.213633 -2.55492 0.385808 -0.353741 0.852068 80 95 81
-0.491155 -0.207561 -2.55812 0.35875 -0.530198 0.768237 73 87 74
-0.473233 -0.209241 -2.56328 0.463587 -0.292823 0.836266 87 102 92
-0.485289 -0.221156 -2.56488 0.355234 -0.329688 0.874708 72 84 73
-0.458782 -0.208677 -2.57117 0.396817 -0.346173 0.850118 84 99 88
-0.44381 -0.208151 -2.57811 0.373326 -0.321094 0.87036 81 100 86
-0.428805 -0.207285 -2.58627 0.397864 -0.23173 0.887697 100 117 105
-0.41267 -0.207225 -2.5925 0.412004 -0.331457 0.848758 78 97 84
-0.39806 -0.206828 -2.6001 0.439068 -0.323025 0.838376 76 95 82
-0.382669 -0.207658 -2.60708 0.417634 -0.355846 0.836036 87 104 93
-0.382257 -0.208047 -2.60715 0.416554 -0.352085 0.838164 89 105 94
-0.369115 -0.20602 -2.61596 0.572878 -0.388059 0.721957 75 92 84
-0.368972 -0.205992 -2.61639 0.595995 -0.392305 0.700633 76 94 87
-0.343359 -0.212988 -2.62854 0.441145 -0.214801 0.871351 137 147 141
-0.30468 -0.229641 -2.57975 -0.674541 0.37988 0.632997 160 158 143
-0.245565 -0.204509 -2.65632 0.701335 0.152662 0.696292 194 182 159
-0.229834 -0.23982 -2.54696 0.0646591 0.575172 0.815473 187 173 154
-0.22898 -0.25621 -2.53217 0.0273389 0.607479 0.793866 171 134 108
-0.211825 -0.256164 -2.53447 0.0458256 0.488485 0.871368 158 114 87
-0.203151 -0.242332 -2.54279 0.223203 0.267953 0.93722 198 174 152
-0.182549 -0.254785 -2.54808 0.184042 0.246434 0.951524 152 99 71
-0.167815 -0.253916 -2.55292 0.373249 -0.31768 0.871645 141 90 61
-0.14947 -0.240831 -2.562 0.384581 -0.154621 0.910049 186 152 127
-0.142131 -0.254461 -2.56034 0.326216 -0.369999 0.869876 138 87 58
-0.132317 -0.241238 -2.56333 0.258014 -0.453092 0.853309 172 131 105
-0.125056 -0.25468 -2.5624 0.302587 -0.39863 0.865757 133 80 49
-0.110122 -0.254441 -2.5651 0.351243 -0.403707 0.844777 119 66 36
-0.0950779 -0.255044 -2.57336 0.235875 -0.175554 0.955795 137 85 51
-0.0640532 -0.254335 -2.58305 0.255415 -0.19381 0.947207 217 208 198
-0.0786152 -0.254527 -2.57973 0.272892 -0.171074 0.946712 159 119 90
-0.0456355 -0.253695 -2.58689 0.157174 -0.265299 0.951269 215 219 216
0.00200606 -0.23907 -2.60795 0.253483 -0.466659 0.847335 217 223 219
0.0170915 -0.239926 -2.6104 0.311938 -0.27594 0.909149 217 221 217
0.0342691 -0.239188 -2.61753 0.26291 -0.173981 0.949004 218 224 221
0.0306923 -0.252257 -2.6146 0.373226 -0.269777 0.88765 218 225 223
0.0323323 -0.251155 -2.62089 0.177053 -0.168514 0.969668 218 225 223
0.0250017 -0.254403 -2.61671 0.26771 -0.25303 0.929681 218 223 221
0.0457814 -0.251941 -2.62201 0.253343 -0.21201 0.943859 219 219 213
0.0598316 -0.254174 -2.62414 0.161727 -0.127645 0.978546 217 115 110
0.0776771 -0.253195 -2.63035 0.335169 -0.234683 0.912461 246 56 56
0.0931092 -0.253313 -2.63564 0.52947 -0.120562 0.839718 247 59 58
0.103563 -0.250111 -2.64789 0.669329 -0.270517 0.691967 232 52 50
0.118665 -0.248227 -2.65305 0.570857 -0.262348 0.778007 112 51 23
0.136732 -0.249603 -2.65299 -0.172225 -0.350751 0.920496 58 88 42
0.236399 -0.144484 -3.00871 -0.239122 -0.448825 0.861032 102 155 76
0.276671 -0.296724 -2.54575 -0.676233 -0.52697 0.514793 74 109 46
0.304943 -0.300083 -2.50926 -0.566477 -0.149576 0.810389 137 209 109
0.333713 -0.30723 -2.52199 0.296187 0.254804 0.920515 136 211 109
0.355044 -0.302658 -2.54283 0.300281 0.300936 0.905135 128 203 104
0.351909 -0.308472 -2.5396 0.376801 0.35864 0.854048 129 204 104
0.390355 -0.301731 -2.55846 0.303408 0.219888 0.927142 119 192 95
0.408703 -0.300874 -2.56408 0.277379 0.106529 0.954836 137 201 108
0.42545 -0.300969 -2.57057 0.320204 0.239693 0.916524 99 147 72
0.585367 -0.199816 -2.94072 -0.867515 0.0255867 0.496753 15 16 13
0.594422 -0.214132 -2.89369 -0.842291 0.141196 0.520201 17 17 15
0.602845 -0.228628 -2.85389 -0.578613 0.536925 0.613937 21 33 18
0.602275 -0.25068 -2.81905 -0.163625 0.710165 0.684758 19 33 15
0.625118 -0.243728 -2.81647 0.0391197 0.668117 0.743027 94 155 75
0.644625 -0.252773 -2.80432 0.0788748 0.653633 0.752691 123 192 102
0.820591 -0.167407 -3.12426 -0.249012 -0.284851 0.925664 147 150 142
0.836546 -0.167147 -3.11633 -0.409363 -0.417885 0.811045 156 158 148
0.83809 -0.168195 -3.11593 -0.406845 -0.455116 0.792052 161 163 154
0.83387 -0.169089 -3.11765 -0.361245 -0.417647 0.83371 151 154 145
0.848254 -0.179941 -3.12448 -0.303672 -0.370453 0.877809 166 171 162
0.867021 -0.169069 -3.10679 -0.152921 -0.375261 0.914218 193 200 192
0.865818 -0.180876 -3.11399 -0.209002 -0.419748 0.883249 188 194 186
0.87739 -0.183689 -3.11274 -0.078862 -0.34834 0.934045 194 201 193
0.896489 -0.182675 -3.1158 0.284086 -0.311363 0.906834 192 198 191
0.915568 -0.183361 -3.11792 0.136694 -0.122714 0.982983 196 197 191
0.932936 -0.186017 -3.12105 0.201177 0.0673919 0.977234 194 198 193
1.00497 -0.169051 -3.16265 -0.588885 -0.20731 0.781176 56 44 49
1.02699 -0.175097 -3.16945 -0.45385 0.222267 0.862912 44 37 37
-0.735471 -0.215326 -2.51722 0.243064 0.245325 0.938475 32 19 16
-0.738652 -0.212435 -2.53747 -0.262223 -0.363616 0.89388 24 17 15
-0.723891 -0.216425 -2.53369 0.0339361 -0.333196 0.942247 27 19 21
-0.710664 -0.209326 -2.5324 0.180785 -0.355498 0.917027 63 58 69
-0.706651 -0.217067 -2.53545 0.276729 -0.334628 0.900803 80 83 99
-0.692281 -0.218902 -2.54083 0.32666 -0.381019 0.864938 78 156 179
-0.679724 -0.210251 -2.54191 0.285925 -0.356636 0.889414 58 147 170
-0.657133 -0.213138 -2.55106 0.440719 -0.247504 0.862849 112 165 179
-0.641956 -0.213244 -2.5596 0.41414 -0.281269 0.865665 194 97 133
-0.626777 -0.215418 -2.56752 0.447284 -0.257553 0.856506 207 82 124
-0.627186 -0.211285 -2.56685 0.40797 -0.259316 0.875395 206 86 125
-0.611345 -0.215431 -2.57555 0.437692 -0.244501 0.865243 199 90 122
-0.596235 -0.215609 -2.58523 -0.159261 -0.376825 0.91249 113 70 84
-0.581833 -0.21521 -2.58354 -0.190974 -0.39678 0.897828 28 31 34
-0.559821 -0.2182 -2.5702 -0.475163 -0.412093 0.777431 28 26 24
-0.532425 -0.225938 -2.55606 -0.0637204 -0.41825 0.906094 52 68 57
-0.53101 -0.227049 -2.55551 -0.0774161 -0.418148 0.905074 53 70 58
-0.514185 -0.226888 -2.55544 0.323066 -0.332431 0.886069 82 96 82
-0.494634 -0.235382 -2.56523 0.340258 -0.273314 0.899736 63 75 65
-0.478989 -0.235814 -2.5712 0.416057 -0.236722 0.877986 70 82 72
-0.462864 -0.235469 -2.5794 0.40268 -0.271115 0.874269 94 108 98
-0.468208 -0.222278 -2.57147 0.415626 -0.320405 0.851232 86 97 88
-0.453416 -0.221587 -2.57916 0.36959 -0.298208 0.880042 126 136 129
-0.453456 -0.221911 -2.57928 0.372406 -0.295922 0.879627 128 138 131
-0.438194 -0.221784 -2.58617 0.401341 -0.243883 0.882863 123 135 127
-0.422255 -0.221699 -2.59209 0.396136 -0.14855 0.906096 129 142 133
-0.407 -0.221165 -2.6 0.448768 -0.31481 0.836362 114 127 118
-0.392539 -0.2208 -2.60825 0.438188 -0.303627 0.846051 116 130 121
-0.377869 -0.220551 -2.61566 0.38899 -0.298608 0.871505 129 144 136
-0.377394 -0.220994 -2.61564 0.393735 -0.255262 0.883071 128 144 135
-0.356122 -0.223421 -2.62527 0.367925 -0.289689 0.883579 64 81 74
-0.286952 -0.250646 -2.55163 -0.747944 0.0873349 0.657991 96 87 79
-0.268494 -0.267619 -2.52955 -0.41613 -0.497392 0.761208 140 115 100
-0.220055 -0.270939 -2.53177 0.15989 0.236292 0.958437 131 73 41
-0.192407 -0.268618 -2.55165 0.22931 -0.116754 0.966326 144 85 51
-0.176852 -0.26889 -2.55408 0.229593 -0.187648 0.955026 125 72 40
-0.160458 -0.268328 -2.55796 0.270425 -0.226044 0.935828 118 68 41
-0.150851 -0.267423 -2.55954 0.262208 -0.252443 0.931407 123 72 47
-0.135512 -0.267434 -2.56437 0.277481 -0.317589 0.906721 142 91 63
-0.119249 -0.266624 -2.56947 0.334421 -0.334925 0.880902 141 89 60
-0.11946 -0.267489 -2.57025 0.333764 -0.351093 0.874835 142 90 62
-0.102073 -0.268469 -2.57649 0.322405 -0.287362 0.90193 132 82 54
-0.0887121 -0.268436 -2.5804 0.294049 -0.281803 0.913303 139 90 58
-0.0731932 -0.268497 -2.5845 0.253976 -0.230799 0.93927 175 148 126
-0.0566832 -0.267746 -2.58666 0.0582225 -0.228629 0.971771 217 216 212
-0.0563681 -0.268992 -2.58678 0.0431654 -0.241075 0.969546 216 216 212
-0.0121724 -0.265559 -2.61232 -0.626716 -0.526013 0.574923 220 223 219
0.0204024 -0.26651 -2.61756 0.260198 -0.233404 0.93692 219 222 221
0.00565752 -0.26846 -2.61085 0.720985 -0.0281037 0.69238 220 223 222
0.021193 -0.265751 -2.61811 0.279174 -0.219743 0.934759 219 222 221
0.0357219 -0.26615 -2.62103 0.287609 -0.246007 0.925614 213 215 202
0.051072 -0.267954 -2.62583 0.279081 -0.222836 0.934054 219 92 90
0.0495148 -0.268108 -2.62631 0.354061 -0.287094 0.890066 217 102 98
0.0505026 -0.267921 -2.6255 0.253023 -0.20239 0.946054 218 97 94
0.0659822 -0.268538 -2.62912 0.273373 -0.209453 0.938827 248 51 54
0.0817829 -0.268119 -2.63566 0.384171 -0.202805 0.900712 250 52 52
0.0963536 -0.266485 -2.6468 0.551599 -0.249107 0.796043 248 53 54
0.111131 -0.264145 -2.6531 0.579663 -0.273862 0.767457 198 46 36
0.125775 -0.261619 -2.66097 0.499822 -0.314773 0.806905 69 67 27
0.142862 -0.263256 -2.65694 0.275096 -0.350241 0.895351 60 85 40
0.159773 -0.262165 -2.6569 0.0419507 -0.0397635 0.998328 68 87 41
0.250637 -0.163605 -3.01722 0.111977 -0.42441 0.89852 98 152 73
0.267621 -0.163915 -3.01899 0.119739 -0.367599 0.922244 106 160 80
0.286375 -0.166843 -3.02142 0.163858 -0.354024 0.92077 104 159 78
0.304483 -0.168301 -3.02423 0.252184 -0.388564 0.88624 108 164 81
0.321898 -0.172853 -3.03446 0.53796 -0.403853 0.739934 109 165 82
0.326999 -0.323198 -2.5236 0.248066 0.454832 0.855331 136 208 111
0.343714 -0.322583 -2.52347 0.259446 0.0921476 0.961351 141 212 113
0.388402 -0.328857 -2.55027 0.449139 0.436154 0.779772 130 207 108
0.396927 -0.314818 -2.55531 0.334601 0.277545 0.900561 120 194 95
0.417278 -0.315343 -2.56605 0.371476 0.257684 0.891967 133 195 106
0.434419 -0.317899 -2.56591 0.166506 0.0652128 0.983882 79 114 50
0.603063 -0.267505 -2.82016 0.0255116 0.679182 0.733526 23 36 18
0.624543 -0.260806 -2.79738 0.0847004 0.654108 0.751644 114 175 94
0.812717 -0.183043 -3.12986 -0.153261 -0.100791 0.983032 177 182 174
0.83074 -0.18273 -3.12648 -0.317995 -0.350424 0.880955 148 151 143
0.829711 -0.180941 -3.12617 -0.269015 -0.346188 0.898768 147 150 142
0.823708 -0.198201 -3.13063 0.0360629 -0.0430879 0.99842 177 180 173
0.831989 -0.183036 -3.12688 -0.425203 -0.439324 0.791326 145 145 136
0.841628 -0.196235 -3.13372 -0.241133 -0.314292 0.918191 152 156 147
0.84081 -0.196136 -3.12957 -0.366949 -0.362507 0.856701 150 152 141
0.859117 -0.197461 -3.12323 -0.326444 -0.467057 0.821762 162 165 156
0.887143 -0.198721 -3.11776 0.0261716 -0.358037 0.93334 194 200 193
0.906154 -0.198404 -3.11977 0.147167 -0.241746 0.959115 193 198 192
0.92767 -0.200209 -3.12332 0.0748704 -0.414217 0.907094 194 196 190
1.00213 -0.18887 -3.20002 0.589937 -0.210732 0.779465 124 120 121
-0.729706 -0.23102 -2.5278 0.245129 -0.334406 0.909991 29 21 18
-0.715927 -0.230602 -2.5379 0.244461 -0.306304 0.920009 39 23 30
-0.699816 -0.230826 -2.54288 0.308146 -0.301468 0.90231 101 127 152
-0.683287 -0.23078 -2.54826 0.225072 -0.316256 0.921588 40 130 162
-0.666757 -0.22749 -2.55198 0.284472 -0.316055 0.905088 79 169 194
-0.651123 -0.227484 -2.55887 0.393042 -0.260724 0.881783 143 147 170
-0.635509 -0.227484 -2.56582 0.308376 -0.259048 0.915313 202 85 125
-0.620629 -0.229939 -2.57503 0.44438 -0.22749 0.866472 211 86 125
-0.605066 -0.23 -2.58292 0.395648 -0.240202 0.886434 174 82 102
-0.572964 -0.229573 -2.58568 -0.0900928 -0.223031 0.970639 25 26 23
-0.586249 -0.229745 -2.58815 0.0945627 -0.235073 0.967367 46 28 25
-0.541999 -0.236995 -2.56697 -0.650533 -0.316654 0.690317 31 37 32
-0.541721 -0.239858 -2.56203 -0.520434 -0.178881 0.834955 31 38 33
-0.523253 -0.240874 -2.5598 0.125986 -0.240018 0.962558 63 77 64
-0.524795 -0.241022 -2.55674 0.168354 -0.342511 0.924307 58 74 61
-0.502102 -0.250843 -2.56334 0.357779 -0.272368 0.893202 68 84 72
-0.488236 -0.250307 -2.57197 0.372475 -0.236137 0.897497 64 79 67
-0.471942 -0.250867 -2.57717 0.394479 -0.16999 0.903045 73 90 79
-0.456922 -0.250699 -2.5854 0.437707 -0.264462 0.859345 93 110 99
-0.447413 -0.235868 -2.58637 0.387349 -0.278782 0.878773 122 137 127
-0.441563 -0.250492 -2.59342 0.464928 -0.285035 0.838211 107 123 112
-0.431781 -0.237141 -2.59332 0.392607 -0.269877 0.879219 107 121 112
-0.425514 -0.250669 -2.60043 0.439116 -0.290413 0.850199 124 140 131
-0.415865 -0.237252 -2.60013 0.383721 -0.269296 0.883311 99 113 106
-0.401262 -0.235628 -2.60728 0.421847 -0.288939 0.859395 130 143 136
-0.384292 -0.237165 -2.61778 0.311545 -0.269988 0.911069 100 115 107
-0.36543 -0.237775 -2.62451 0.363574 -0.282974 0.887547 82 101 93
-0.35116 -0.238749 -2.62917 -0.332571 -0.683002 0.650312 75 94 88
-0.319621 -0.249444 -2.62358 -0.738555 -0.564422 0.368734 34 32 27
-0.303355 -0.260833 -2.56051 -0.771781 0.186042 0.608064 39 33 26
-0.28999 -0.273058 -2.55121 -0.633148 0.0861146 0.769225 36 37 29
-0.271362 -0.282928 -2.53273 0.107573 -0.53688 0.836772 69 44 32
-0.280219 -0.270371 -2.52643 -0.211055 -0.712595 0.669077 65 57 50
-0.255389 -0.274392 -2.53269 0.0362405 -0.592343 0.80487 144 91 59
-0.243448 -0.278048 -2.53233 0.358421 -0.184922 0.915062 136 77 45
-0.230463 -0.282548 -2.53789 0.325001 -0.38529 0.86367 130 74 45
-0.21527 -0.282926 -2.54177 0.297583 -0.316787 0.900606 140 85 51
-0.184947 -0.28205 -2.5548 0.215229 -0.352656 0.910665 147 88 56
-0.199874 -0.284234 -2.55029 0.256743 -0.347796 0.901732 149 90 56
-0.169623 -0.282225 -2.56015 0.227523 -0.229632 0.94631 124 75 46
-0.154218 -0.282655 -2.56359 0.228335 -0.190567 0.95475 131 86 56
-0.138569 -0.282724 -2.56793 0.241266 -0.205477 0.948456 142 98 67
-0.128501 -0.281831 -2.57073 0.302942 -0.214709 0.928508 142 99 67
-0.111708 -0.28192 -2.57679 0.285145 -0.156089 0.94569 140 102 74
-0.0971884 -0.282162 -2.58066 0.301549 -0.308697 0.902095 150 113 91
-0.0818445 -0.281948 -2.58545 0.258232 -0.311292 0.914557 168 139 118
-0.0664628 -0.281886 -2.59009 0.242142 -0.180618 0.953281 205 198 189
-0.0402469 -0.281838 -2.59779 0.315705 -0.400008 0.860421 215 219 216
-0.0402733 -0.281806 -2.5977 0.314036 -0.401454 0.860358 215 219 216
-0.0493387 -0.282144 -2.59322 0.109709 -0.310439 0.944241 213 217 215
-0.0200151 -0.281148 -2.6193 0.16799 -0.417317 0.893099 217 222 217
-0.00425589 -0.280508 -2.61645 0.242447 -0.158329 0.957158 217 221 219
0.0114846 -0.280245 -2.61854 0.283758 -0.242848 0.927634 218 221 220
0.0268594 -0.280434 -2.62298 0.208356 -0.195964 0.95822 215 196 186
0.041629 -0.281707 -2.62634 0.272908 -0.24901 0.929255 225 78 74
0.057281 -0.281783 -2.63068 0.319104 -0.262634 0.910602 248 49 49
0.0724275 -0.281893 -2.63562 0.387486 -0.255461 0.885773 248 49 51
0.0877849 -0.281583 -2.64469 0.488382 -0.263442 0.831914 251 48 55
0.117979 -0.277146 -2.66274 0.554196 -0.250954 0.793656 144 46 28
0.133792 -0.276168 -2.66283 0.124734 -0.284687 0.950471 46 57 24
0.231906 -0.188859 -3.02907 0.0472768 -0.524932 0.84983 97 145 69
0.231883 -0.175537 -3.01959 0.0292812 -0.483445 0.874885 97 147 70
0.241361 -0.178002 -3.02135 0.0989647 -0.345167 0.933309 98 150 73
0.266997 -0.193118 -3.03135 0.221937 -0.286776 0.931935 100 152 74
0.24921 -0.191368 -3.02912 0.156758 -0.344956 0.925436 96 148 71
0.258699 -0.17884 -3.02333 0.0284359 -0.342039 0.939255 98 151 72
0.284922 -0.192052 -3.03684 0.248197 -0.366996 0.8965 100 153 74
0.276821 -0.180784 -3.02571 0.151493 -0.38024 0.912397 101 156 75
0.294794 -0.181947 -3.02876 0.169634 -0.422799 0.890205 102 158 76
0.326443 -0.186394 -3.04569 0.587794 -0.378924 0.714783 105 161 79
0.31234 -0.184293 -3.03889 0.484648 -0.537881 0.689782 103 159 77
0.341159 -0.185746 -3.05674 0.463136 -0.433352 0.773117 105 163 81
0.357298 -0.189792 -3.06769 0.133138 -0.575874 0.806625 99 156 74
0.344005 -0.340565 -2.50954 -0.604494 -0.764167 0.225024 147 211 115
0.358404 -0.354043 -2.51232 0.311588 -0.232893 0.921235 140 205 111
0.372441 -0.352477 -2.52494 0.557724 0.00267254 0.830022 137 210 112
0.366224 -0.339758 -2.51856 0.503049 -0.404906 0.763539 137 211 112
0.382874 -0.343285 -2.53609 0.549504 0.229513 0.803349 129 204 104
0.398374 -0.338651 -2.54389 0.69583 -0.0984784 0.711423 134 207 108
0.409722 -0.330417 -2.5597 0.436711 0.315427 0.84249 130 197 105
0.385351 -0.344932 -2.53542 0.572094 0.0270972 0.819741 132 205 107
0.418293 -0.342922 -2.56176 0.586326 -0.0859794 0.805499 97 135 62
0.42619 -0.329971 -2.56744 0.298015 0.327588 0.89659 87 133 66
0.697521 -0.204187 -3.1241 -0.637417 -0.310562 0.70516 26 29 21
0.715897 -0.205016 -3.11501 -0.285962 -0.331684 0.899006 76 95 73
0.733533 -0.204889 -3.11421 -0.0704844 -0.357347 0.931308 161 184 159
0.629922 -0.316867 -2.71259 0.464561 0.0741433 0.882432 129 192 106
0.823198 -0.198634 -3.13573 -0.265359 -0.255514 0.929676 181 184 177
0.833504 -0.213749 -3.13539 -0.0540731 -0.178595 0.982436 183 187 179
0.852106 -0.213789 -3.1351 -0.366023 -0.368878 0.854374 155 156 147
0.851855 -0.211849 -3.13314 -0.347187 -0.414569 0.841186 154 155 146
0.876928 -0.214392 -3.12215 -0.353054 -0.49373 0.794722 173 176 167
0.896082 -0.214442 -3.12146 -0.074104 -0.439379 0.89524 193 198 191
0.904828 -0.228897 -3.12232 -0.357625 -0.475811 0.80356 194 196 189
0.913088 -0.213987 -3.11184 0.022627 -0.473362 0.880577 194 198 192
0.99557 -0.2034 -3.21652 0.150402 -0.272024 0.950464 175 172 173
1.01168 -0.203086 -3.21324 0.617933 -0.232832 0.750965 90 85 89
1.02206 -0.20574 -3.20902 0.0267189 -0.220037 0.975126 68 63 65
1.0326 -0.209167 -3.21098 0.178542 -0.330505 0.926763 75 69 70
-0.731812 -0.241292 -2.55175 -0.344857 -0.335288 0.87673 21 18 17
-0.709363 -0.244549 -2.5444 0.33489 -0.300104 0.893189 53 39 50
-0.692968 -0.244422 -2.55039 0.308369 -0.299321 0.902948 96 159 181
-0.676862 -0.244558 -2.55525 0.24334 -0.310032 0.919057 47 139 165
-0.659732 -0.242863 -2.56068 0.222622 -0.340757 0.913414 97 174 190
-0.644689 -0.242164 -2.5655 0.413253 -0.306526 0.857475 167 127 151
-0.629809 -0.241878 -2.57282 0.409594 -0.302165 0.860772 209 83 121
-0.61341 -0.244951 -2.58339 0.363497 -0.282912 0.887598 202 84 118
-0.598331 -0.243662 -2.58916 0.262198 -0.255147 0.930673 135 55 67
-0.581353 -0.243429 -2.59016 -0.0253417 -0.273442 0.961555 35 27 20
-0.558005 -0.246876 -2.57337 -0.587517 -0.278744 0.759688 23 20 22
-0.548591 -0.261339 -2.5747 -0.546073 -0.308599 0.778826 23 24 22
-0.53318 -0.253926 -2.56451 -0.087013 -0.195632 0.976809 47 60 48
-0.515242 -0.254934 -2.56401 0.209662 -0.344745 0.914983 75 91 77
-0.496225 -0.26502 -2.57056 0.473847 -0.238247 0.847766 64 80 68
-0.507816 -0.268571 -2.56993 0.225433 -0.283553 0.932082 79 96 81
-0.481238 -0.265094 -2.57889 0.464953 -0.180233 0.866796 66 85 71
-0.481036 -0.265197 -2.57837 0.27725 -0.37676 0.883846 66 85 71
-0.466302 -0.264461 -2.58604 0.338484 -0.235863 0.910932 77 97 84
-0.466113 -0.265314 -2.58328 0.513862 -0.205604 0.832871 76 97 83
-0.450963 -0.264917 -2.5926 0.440265 -0.209204 0.873155 115 135 122
-0.435485 -0.264862 -2.60048 0.437816 -0.2518 0.863084 92 109 98
-0.435359 -0.265343 -2.59913 0.451178 -0.314248 0.835276 92 109 98
-0.42 -0.264166 -2.60805 0.416339 -0.264356 0.86993 99 117 107
-0.410009 -0.251137 -2.60724 0.415175 -0.247263 0.875495 102 117 110
-0.393447 -0.251741 -2.6192 0.420107 -0.296618 0.85763 112 127 119
-0.37715 -0.25288 -2.6238 0.45919 -0.131121 0.878608 105 124 115
-0.360751 -0.251323 -2.63165 0.4542 -0.357803 0.815892 57 74 68
-0.346459 -0.254032 -2.6303 -0.113261 -0.183706 0.976434 29 37 35
-0.332133 -0.252286 -2.63582 -0.130159 -0.356091 0.925342 27 23 21
-0.323022 -0.268375 -2.63015 -0.616931 -0.455866 0.641547 21 18 15
-0.306483 -0.286174 -2.54984 -0.708803 0.347158 0.614068 27 26 21
-0.276981 -0.293106 -2.54801 -0.409583 -0.494477 0.766639 47 30 19
-0.257868 -0.291629 -2.53845 -0.301944 -0.685681 0.662323 143 89 55
-0.243811 -0.290292 -2.54182 0.304035 -0.528042 0.792928 152 94 55
-0.224832 -0.295523 -2.54552 0.494084 -0.202282 0.845555 157 101 63
-0.209519 -0.294633 -2.55281 0.340683 -0.227485 0.912242 164 103 63
-0.194221 -0.295686 -2.5626 0.0203308 -0.311701 0.949963 147 92 56
-0.178044 -0.295107 -2.56009 0.206661 -0.305402 0.929527 151 107 77
-0.162772 -0.295291 -2.5638 0.246906 -0.331443 0.910595 167 139 118
-0.147137 -0.294945 -2.56811 0.201891 -0.395934 0.895811 178 156 137
-0.131908 -0.294453 -2.57095 0.281095 -0.147448 0.948285 194 174 155
-0.106653 -0.296565 -2.58244 0.34933 -0.230865 0.908113 210 205 198
-0.091723 -0.296646 -2.58659 0.313277 -0.253048 0.915327 214 209 204
-0.0899552 -0.296689 -2.58575 0.271627 -0.294552 0.91622 215 209 204
-0.0752803 -0.296678 -2.59082 0.289464 -0.26669 0.919286 214 211 206
-0.0751587 -0.295288 -2.59102 0.275333 -0.299058 0.91365 215 211 205
-0.059691 -0.296793 -2.59784 0.367033 -0.259731 0.893211 212 215 213
-0.049309 -0.293939 -2.59796 0.251627 -0.336213 0.907549 213 216 214
-0.033298 -0.297023 -2.60933 0.315607 -0.168118 0.933878 217 217 217
-0.0333197 -0.297011 -2.60932 0.315526 -0.167196 0.934071 217 217 217
-0.012982 -0.294083 -2.61452 0.353426 -0.22075 0.909043 216 221 218
0.0180053 -0.294309 -2.62386 0.263611 -0.238105 0.934781 213 174 165
0.0026288 -0.294106 -2.61979 0.29735 -0.235612 0.925241 215 221 220
0.00310594 -0.295446 -2.62045 0.27964 -0.233758 0.931214 215 220 219
0.0337133 -0.294551 -2.62745 0.277141 -0.253936 0.926666 225 65 64
0.0328457 -0.29506 -2.62757 0.28885 -0.273062 0.917607 224 66 66
0.0492389 -0.294598 -2.63193 0.296634 -0.265295 0.917402 244 47 46
0.0644603 -0.294714 -2.63645 0.331347 -0.282241 0.900305 233 47 47
0.0793006 -0.294674 -2.64261 0.388321 -0.297771 0.872089 217 46 49
0.0971215 -0.292664 -2.64995 0.453732 -0.344311 0.821935 245 44 44
0.11083 -0.29299 -2.66264 0.689387 -0.198125 0.696773 221 46 42
0.125876 -0.290836 -2.66793 0.372161 -0.293307 0.880606 83 55 24
0.141545 -0.291907 -2.66926 0.393055 -0.292968 0.871595 47 58 26
0.217669 -0.20308 -3.04172 0.0484534 -0.376373 0.925201 86 135 61
0.217686 -0.194178 -3.03522 0.105763 -0.50587 0.856101 86 134 61
0.23419 -0.204448 -3.04084 0.0382765 -0.493073 0.869145 88 136 61
0.267043 -0.205418 -3.04216 0.0938653 -0.592375 0.800175 97 147 71
0.291608 -0.197946 -3.05185 0.401177 -0.528563 0.748116 96 149 70
0.330366 -0.200056 -3.05754 0.565607 -0.40923 0.715975 103 157 77
0.344861 -0.203627 -3.06835 0.529924 -0.459818 0.712564 96 149 70
0.360011 -0.203955 -3.08015 0.56276 -0.241183 0.790653 100 154 72
0.375739 -0.206042 -3.08367 0.424304 -0.441999 0.790318 98 152 70
0.336921 -0.3576 -2.51028 0.272437 0.213524 0.938182 111 140 72
0.396599 -0.355876 -2.54206 0.664505 -0.111197 0.738964 133 193 104
0.38342 -0.357506 -2.53168 0.6462 -0.0759637 0.759378 140 207 111
0.383804 -0.356937 -2.53076 0.639141 -0.17199 0.749612 140 208 112
0.414793 -0.359859 -2.56289 0.682512 -0.295754 0.668361 62 89 34
0.686284 -0.225967 -3.12732 -0.130161 -0.354528 0.925942 19 19 16
0.724486 -0.220698 -3.12356 -0.270017 -0.555441 0.786497 79 92 72
0.742203 -0.219762 -3.12073 0.0792024 -0.358332 0.930229 150 170 151
0.753596 -0.235462 -3.12295 -0.0719644 -0.261941 0.962397 153 170 157
0.627451 -0.329057 -2.73284 -0.110646 -0.694845 0.710597 88 135 65
0.841912 -0.229219 -3.1333 0.240464 0.0835653 0.967054 186 191 183
0.859873 -0.228926 -3.1332 0.257777 -0.13245 0.957083 159 163 154
0.88604 -0.228931 -3.12445 -0.398912 -0.485297 0.778046 176 178 169
0.898597 -0.243996 -3.132 -0.331403 -0.46323 0.821943 181 183 175
0.917088 -0.244061 -3.12488 -0.392111 -0.463388 0.794683 196 198 191
1.00211 -0.217987 -3.21573 0.500398 -0.0421777 0.864767 157 155 156
1.02585 -0.229945 -3.21602 0.242596 0.336358 0.909951 77 72 74
1.02842 -0.217732 -3.22785 0.225143 0.238792 0.944611 75 69 71
-0.719708 -0.258947 -2.54962 0.0464139 -0.325433 0.944425 26 21 19
-0.722765 -0.256382 -2.55319 -0.156908 -0.382213 0.910655 26 20 19
-0.724115 -0.266126 -2.53602 0.348939 -0.308403 0.884946 28 21 19
